-1.79154 -1.16461 -0.33558
-1.79166 -1.16268 -0.33520
-1.79175 -1.16073 -0.33505
-1.79018 -1.15771 -0.33459
-1.79109 -1.15629 -0.33459
-1.78697 -1.12587 -0.33199
-1.78618 -1.12341 -0.33168
-1.78707 -1.12200 -0.33169
-1.78798 -1.12061 -0.33147
-1.78802 -1.11867 -0.33132
-1.78804 -1.11672 -0.33139
-1.78895 -1.11533 -0.33117
-1.78899 -1.11339 -0.33102
-1.78822 -1.11096 -0.33049
-1.78825 -1.10902 -0.33034
-1.78745 -1.10657 -0.33003
-1.78748 -1.10464 -0.32988
-1.78751 -1.10271 -0.32973
-1.78669 -1.10027 -0.32942
-1.78503 -1.09730 -0.32896
-1.78758 -1.09693 -0.32928
-1.78932 -1.09605 -0.32921
-1.78762 -1.09308 -0.32897
-1.78596 -1.09012 -0.32851
-1.78594 -1.08818 -0.32858
-1.78764 -1.08728 -0.32874
-1.78766 -1.08536 -0.32859
-1.78682 -1.08293 -0.32828
-1.78595 -1.08047 -0.32819
-1.78678 -1.07905 -0.32842
-1.78684 -1.07716 -0.32783
-1.78599 -1.07473 -0.32752
-1.78684 -1.07332 -0.32752
-1.78766 -1.07190 -0.32775
-1.78684 -1.06949 -0.32722
-1.78513 -1.06656 -0.32676
-1.78597 -1.06515 -0.32676
-1.78766 -1.06425 -0.32692
-1.78765 -1.06233 -0.32677
-1.78509 -1.05890 -0.32615
-1.78507 -1.05699 -0.32600
-1.78336 -1.05408 -0.32554
-1.77826 -1.04917 -0.32424
-1.77650 -1.04625 -0.32399
-1.77903 -1.04585 -0.32431
-1.78393 -1.03740 -0.32455
-1.78133 -1.03400 -0.32393
-1.78214 -1.03260 -0.32393
-1.78381 -1.03169 -0.32409
-1.78548 -1.03077 -0.32425
-1.78458 -1.02838 -0.32394
-1.78368 -1.02598 -0.32364
-1.78277 -1.02359 -0.32333
-1.78358 -1.02219 -0.32333
-1.78438 -1.02078 -0.32334
-1.78433 -1.01888 -0.32319
-1.78345 -1.01651 -0.32266
-1.78339 -1.01462 -0.32251
-1.78247 -1.01223 -0.32220
-1.78241 -1.01034 -0.32205
-1.78320 -1.00893 -0.32205
-1.78403 -1.00754 -0.32184
-1.78310 -1.00516 -0.32154
-1.78303 -1.00327 -0.32139
-1.78296 -1.00138 -0.32123
-1.78202 -0.99901 -0.32093
-1.78281 -0.99760 -0.32093
-1.78357 -0.99618 -0.32115
-1.78090 -0.99285 -0.32053
-1.77909 -0.99000 -0.32007
-1.78333 -0.99052 -0.32069
-1.78584 -0.99007 -0.32101
-1.77362 -0.98147 -0.31889
-1.78477 -0.98580 -0.32076
-1.69734 -1.19917 -0.32843
-1.77577 -1.25248 -0.34342
-1.78968 -1.26018 -0.34592
-1.79145 -1.25931 -0.34631
-1.79163 -1.25733 -0.34615
-1.79263 -1.25592 -0.34616
-1.79281 -1.25394 -0.34601
-1.79298 -1.25195 -0.34585
-1.79316 -1.24997 -0.34570
-1.79252 -1.24743 -0.34539
-1.79351 -1.24602 -0.34540
-1.79371 -1.24406 -0.34501
-1.79388 -1.24208 -0.34486
-1.79242 -1.23898 -0.34440
-1.79258 -1.23700 -0.34425
-1.79355 -1.23559 -0.34425
-1.79371 -1.23361 -0.34410
-1.79390 -1.23166 -0.34372
-1.79324 -1.22913 -0.34341
-1.79340 -1.22715 -0.34326
-1.79273 -1.22462 -0.34295
-1.79128 -1.22156 -0.34226
-1.79058 -1.21901 -0.34218
-1.79157 -1.21762 -0.34195
-1.79498 -1.21787 -0.34242
-1.78920 -1.18734 -0.33949
-1.78767 -1.18429 -0.33903
-1.79025 -1.18397 -0.33935
-1.79118 -1.18256 -0.33935
-1.79046 -1.18005 -0.33904
-1.78892 -1.17701 -0.33858
-1.78988 -1.17562 -0.33836
-1.79080 -1.17421 -0.33836
-1.79090 -1.17225 -0.33821
-1.79017 -1.16976 -0.33790
-1.79109 -1.16835 -0.33790
-1.79036 -1.16585 -0.33759
-1.78962 -1.16336 -0.33729
-1.78885 -1.16086 -0.33720
-1.78894 -1.15891 -0.33705
-1.78902 -1.15696 -0.33690
-1.79408 -1.15823 -0.33768
-1.79166 -1.13080 -0.33508
-1.78583 -1.12516 -0.33405
-1.78678 -1.12378 -0.33361
-1.78680 -1.12183 -0.33368
-1.78771 -1.12044 -0.33346
-1.78692 -1.11798 -0.33315
-1.78696 -1.11605 -0.33300
-1.78784 -1.11464 -0.33300
-1.78707 -1.11220 -0.33248
-1.78624 -1.10973 -0.33239
-1.78544 -1.10728 -0.33208
-1.78631 -1.10587 -0.33208
-1.78799 -1.10496 -0.33246
-1.78802 -1.10303 -0.33231
-1.78553 -1.09955 -0.33169
-1.78468 -1.09709 -0.33160
-1.78804 -1.09721 -0.33230
-1.79564 -1.09993 -0.33355
-1.78811 -1.09337 -0.33177
-1.78479 -1.08941 -0.33077
-1.78733 -1.08903 -0.33109
-1.78735 -1.08710 -0.33093
-1.78314 -1.08262 -0.33000
-1.78061 -1.07916 -0.32938
-1.78059 -1.07723 -0.32945
-1.78569 -1.07839 -0.33001
-1.78742 -1.07751 -0.32995
-1.78404 -1.07356 -0.32918
-1.78147 -1.07010 -0.32877
-1.78316 -1.06920 -0.32893
-1.78654 -1.06931 -0.32941
-1.78569 -1.06689 -0.32910
-1.78398 -1.06396 -0.32863
-1.78400 -1.06207 -0.32826
-1.78484 -1.06066 -0.32827
-1.78310 -1.05772 -0.32802
-1.78305 -1.05579 -0.32808
-1.78218 -1.05338 -0.32777
-1.78131 -1.05097 -0.32747
-1.78129 -1.04906 -0.32731
-1.78126 -1.04716 -0.32716
-1.78038 -1.04475 -0.32685
-1.78032 -1.04283 -0.32692
-1.78117 -1.04144 -0.32670
-1.78200 -1.04004 -0.32671
-1.78281 -1.03863 -0.32671
-1.78363 -1.03722 -0.32671
-1.78189 -1.03433 -0.32625
-1.78099 -1.03193 -0.32594
-1.78095 -1.03003 -0.32578
-1.78179 -1.02864 -0.32557
-1.78260 -1.02724 -0.32558
-1.78256 -1.02534 -0.32542
-1.78251 -1.02344 -0.32527
-1.78249 -1.02156 -0.32490
-1.78329 -1.02015 -0.32491
-1.78409 -1.01875 -0.32491
-1.78232 -1.01587 -0.32445
-1.78141 -1.01349 -0.32414
-1.78046 -1.01109 -0.32404
-1.78128 -1.00970 -0.32383
-1.78119 -1.00779 -0.32389
-1.78112 -1.00590 -0.32374
-1.78105 -1.00401 -0.32359
-1.78271 -1.00309 -0.32375
-1.78266 -1.00122 -0.32338
-1.77995 -0.99784 -0.32319
-1.77901 -0.99547 -0.32288
-1.77979 -0.99407 -0.32288
-1.78058 -0.99267 -0.32289
-1.78050 -0.99078 -0.32273
-1.78559 -0.99177 -0.32352
-1.78375 -0.98891 -0.32327
-1.77074 -0.97987 -0.32055
-1.79315 -0.99043 -0.32425
-1.75916 -1.24285 -0.34271
-1.78516 -1.25910 -0.34758
-1.79019 -1.26054 -0.34837
-1.79118 -1.25912 -0.34837
-1.79137 -1.25714 -0.34822
-1.79077 -1.25462 -0.34768
-1.79095 -1.25264 -0.34753
-1.79194 -1.25122 -0.34753
-1.79292 -1.24981 -0.34754
-1.79228 -1.24726 -0.34723
-1.79086 -1.24418 -0.34653
-1.79103 -1.24220 -0.34638
-1.79117 -1.24021 -0.34645
-1.79055 -1.23769 -0.34591
-1.79072 -1.23572 -0.34576
-1.79088 -1.23374 -0.34561
-1.79100 -1.23175 -0.34568
-1.79032 -1.22920 -0.34560
-1.78969 -1.22669 -0.34506
-1.78899 -1.22414 -0.34498
-1.78914 -1.22217 -0.34483
-1.78929 -1.22020 -0.34467
-1.79104 -1.21933 -0.34506
-1.79448 -1.21960 -0.34531
-1.79129 -1.19076 -0.34215
-1.78811 -1.18661 -0.34137
-1.78740 -1.18411 -0.34105
-1.78830 -1.18268 -0.34128
-1.78924 -1.18127 -0.34129
-1.78769 -1.17823 -0.34082
-1.78780 -1.17627 -0.34067
-1.78872 -1.17486 -0.34067
-1.78882 -1.17291 -0.34052
-1.78806 -1.17040 -0.34043
-1.78654 -1.16738 -0.33974
-1.78660 -1.16541 -0.33981
-1.78835 -1.16454 -0.33997
-1.78678 -1.16152 -0.33950
-1.78604 -1.15903 -0.33919
-1.78612 -1.15709 -0.33904
-1.78952 -1.15728 -0.33951
-1.78299 -1.12729 -0.33566
-1.78220 -1.12483 -0.33535
-1.78309 -1.12343 -0.33535
-1.78397 -1.12202 -0.33536
-1.78399 -1.12007 -0.33542
-1.78487 -1.11866 -0.33543
-1.78576 -1.11725 -0.33543
-1.78493 -1.11478 -0.33534
-1.78497 -1.11285 -0.33519
-1.78501 -1.11092 -0.33503
-1.78508 -1.10900 -0.33466
-1.78424 -1.10654 -0.33457
-1.78514 -1.10515 -0.33435
-1.78601 -1.10374 -0.33436
-1.78520 -1.10129 -0.33405
-1.78355 -1.09833 -0.33358
-1.78444 -1.09694 -0.33336
-1.78952 -1.09811 -0.33415
-1.78286 -1.07477 -0.33158
-1.78202 -1.07234 -0.33127
-1.78283 -1.06900 -0.33133
-1.78113 -1.06607 -0.33087
-1.78027 -1.06365 -0.33055
-1.78111 -1.06225 -0.33056
-1.78110 -1.06034 -0.33041
-1.78109 -1.05843 -0.33025
-1.78107 -1.05652 -0.33010
-1.78275 -1.05562 -0.33026
-1.78188 -1.05321 -0.32995
-1.78016 -1.05029 -0.32948
-1.78017 -1.04841 -0.32911
-1.78099 -1.04700 -0.32911
-1.78012 -1.04460 -0.32880
-1.77926 -1.04221 -0.32827
-1.77923 -1.04031 -0.32812
-1.78002 -1.03889 -0.32834
-1.77916 -1.03650 -0.32781
-1.78083 -1.03560 -0.32797
-1.78080 -1.03370 -0.32782
-1.77990 -1.03130 -0.32751
-1.77900 -1.02891 -0.32720
-1.78067 -1.02800 -0.32736
-1.78059 -1.02608 -0.32742
-1.78055 -1.02418 -0.32727
-1.78050 -1.02229 -0.32711
-1.78044 -1.02039 -0.32696
-1.78039 -1.01850 -0.32681
-1.78031 -1.01658 -0.32687
-1.77936 -1.01418 -0.32677
-1.77933 -1.01231 -0.32640
-1.77927 -1.01042 -0.32625
-1.77921 -1.00853 -0.32610
-1.78000 -1.00712 -0.32610
-1.77997 -1.00525 -0.32573
-1.77990 -1.00336 -0.32558
-1.77983 -1.00147 -0.32542
-1.77975 -0.99958 -0.32527
-1.78054 -0.99818 -0.32527
-1.78133 -0.99677 -0.32528
-1.77953 -0.99392 -0.32481
-1.77772 -0.99107 -0.32434
-1.78109 -0.99111 -0.32482
-1.78533 -0.99162 -0.32545
-1.77488 -0.98399 -0.32341
-1.76961 -0.97924 -0.32231
-1.73057 -1.22469 -0.33892
-1.77747 -1.25578 -0.34815
-1.78818 -1.26123 -0.34982
-1.78914 -1.25980 -0.35005
-1.78852 -1.25725 -0.34974
-1.78870 -1.25527 -0.34959
-1.78969 -1.25386 -0.34959
-1.78987 -1.25188 -0.34944
-1.78921 -1.24932 -0.34935
-1.78938 -1.24734 -0.34920
-1.78955 -1.24536 -0.34904
-1.78891 -1.24282 -0.34873
-1.78908 -1.24085 -0.34858
-1.78922 -1.23885 -0.34865
-1.78857 -1.23632 -0.34834
-1.78795 -1.23381 -0.34780
-1.78892 -1.23240 -0.34780
-1.78826 -1.22986 -0.34749
-1.78760 -1.22734 -0.34718
-1.78697 -1.22483 -0.34664
-1.78712 -1.22286 -0.34648
-1.78724 -1.22087 -0.34656
-1.78742 -1.21893 -0.34618
-1.79001 -1.21863 -0.34650
-1.78430 -1.18814 -0.34330
-1.78438 -1.18617 -0.34336
-1.78531 -1.18476 -0.34337
-1.78542 -1.18280 -0.34321
-1.78553 -1.18085 -0.34306
-1.78564 -1.17890 -0.34291
-1.78410 -1.17586 -0.34243
-1.78423 -1.17393 -0.34206
-1.78598 -1.17306 -0.34222
-1.78690 -1.17165 -0.34222
-1.78535 -1.16862 -0.34175
-1.78461 -1.16613 -0.34144
-1.78639 -1.16528 -0.34138
-1.78814 -1.16441 -0.34154
-1.78657 -1.16138 -0.34107
-1.78500 -1.15836 -0.34060
-1.78591 -1.15695 -0.34060
-1.78260 -1.12902 -0.33825
-1.78018 -1.12552 -0.33740
-1.78107 -1.12412 -0.33740
-1.78279 -1.12324 -0.33756
-1.78284 -1.12131 -0.33741
-1.78205 -1.11885 -0.33710
-1.78213 -1.11694 -0.33672
-1.78298 -1.11551 -0.33695
-1.78388 -1.11412 -0.33673
-1.78389 -1.11217 -0.33680
-1.78312 -1.10974 -0.33626
-1.78316 -1.10781 -0.33611
-1.78403 -1.10641 -0.33611
-1.78403 -1.10446 -0.33618
-1.78322 -1.10201 -0.33587
-1.78241 -1.09957 -0.33555
-1.78160 -1.09713 -0.33524
-1.78583 -1.09779 -0.33588
-1.77920 -1.06683 -0.33245
-1.77920 -1.06492 -0.33229
-1.77919 -1.06301 -0.33214
-1.78005 -1.06162 -0.33193
-1.78174 -1.06072 -0.33209
-1.78257 -1.05931 -0.33209
-1.78171 -1.05690 -0.33178
-1.78084 -1.05449 -0.33147
-1.77997 -1.05208 -0.33115
-1.77995 -1.05017 -0.33100
-1.78078 -1.04877 -0.33100
-1.78158 -1.04734 -0.33122
-1.77985 -1.04444 -0.33075
-1.77897 -1.04203 -0.33044
-1.77893 -1.04013 -0.33028
-1.77972 -1.03871 -0.33050
-1.77884 -1.03631 -0.33019
-1.78136 -1.03590 -0.33051
-1.77705 -1.03152 -0.32956
-1.77615 -1.02913 -0.32925
-1.77697 -1.02773 -0.32926
-1.77521 -1.02484 -0.32878
-1.77431 -1.02246 -0.32847
-1.77511 -1.02106 -0.32848
-1.77680 -1.02017 -0.32842
-1.77761 -1.01876 -0.32843
-1.77755 -1.01687 -0.32827
-1.77835 -1.01547 -0.32827
-1.77658 -1.01260 -0.32780
-1.77655 -1.01072 -0.32743
-1.77731 -1.00931 -0.32765
-1.77639 -1.00693 -0.32734
-1.77718 -1.00553 -0.32734
-1.77712 -1.00364 -0.32719
-1.77791 -1.00224 -0.32719
-1.77787 -1.00037 -0.32682
-1.77690 -0.99798 -0.32672
-1.77766 -0.99656 -0.32694
-1.77847 -0.99517 -0.32673
-1.77667 -0.99233 -0.32626
-1.77656 -0.99043 -0.32632
-1.78166 -0.99143 -0.32711
-1.77898 -0.98810 -0.32649
-1.79096 -0.99291 -0.32876
-1.71240 -1.21386 -0.33780
-1.77299 -1.25471 -0.34957
-1.78446 -1.26072 -0.35163
-1.78707 -1.26045 -0.35196
-1.78648 -1.25792 -0.35141
-1.78744 -1.25649 -0.35165
-1.78843 -1.25508 -0.35165
-1.78702 -1.25199 -0.35095
-1.78720 -1.25002 -0.35079
-1.78819 -1.24860 -0.35080
-1.78836 -1.24663 -0.35064
-1.78772 -1.24409 -0.35033
-1.78870 -1.24268 -0.35033
-1.78968 -1.24127 -0.35034
-1.78904 -1.23873 -0.35002
-1.78673 -1.23505 -0.34962
-1.78689 -1.23308 -0.34947
-1.78627 -1.23057 -0.34892
-1.78561 -1.22804 -0.34861
-1.78577 -1.22607 -0.34845
-1.78670 -1.22464 -0.34869
-1.78604 -1.22212 -0.34837
-1.78537 -1.21959 -0.34806
-1.78715 -1.21874 -0.34822
-1.79545 -1.22233 -0.34965
-1.78409 -1.18800 -0.34487
-1.78420 -1.18605 -0.34471
-1.78349 -1.18355 -0.34440
-1.78445 -1.18216 -0.34418
-1.78456 -1.18021 -0.34403
-1.78464 -1.17823 -0.34409
-1.78391 -1.17574 -0.34378
-1.78484 -1.17433 -0.34379
-1.78577 -1.17292 -0.34379
-1.78421 -1.16989 -0.34332
-1.78266 -1.16686 -0.34284
-1.78272 -1.16489 -0.34291
-1.78447 -1.16402 -0.34307
-1.78373 -1.16154 -0.34276
-1.78305 -1.15909 -0.34200
-1.78307 -1.15711 -0.34229
-1.79061 -1.15999 -0.34357
-1.78081 -1.12592 -0.33910
-1.78002 -1.12346 -0.33879
-1.78088 -1.12203 -0.33902
-1.78093 -1.12010 -0.33886
-1.78181 -1.11870 -0.33887
-1.78182 -1.11675 -0.33893
-1.78190 -1.11484 -0.33855
-1.78107 -1.11237 -0.33846
-1.78198 -1.11098 -0.33824
-1.78198 -1.10903 -0.33831
-1.78118 -1.10658 -0.33799
-1.78205 -1.10518 -0.33800
-1.78208 -1.10325 -0.33784
-1.78130 -1.10083 -0.33731
-1.78217 -1.09942 -0.33731
-1.78304 -1.09802 -0.33732
-1.79147 -1.10126 -0.33875
-1.77646 -1.06709 -0.33365
-1.77642 -1.06516 -0.33371
-1.77726 -1.06376 -0.33372
-1.77807 -1.06234 -0.33394
-1.77975 -1.06144 -0.33410
-1.78062 -1.06005 -0.33389
-1.77891 -1.05714 -0.33341
-1.77801 -1.05471 -0.33332
-1.77887 -1.05332 -0.33310
-1.77885 -1.05141 -0.33295
-1.77883 -1.04951 -0.33279
-1.77881 -1.04760 -0.33264
-1.77963 -1.04620 -0.33264
-1.77961 -1.04430 -0.33248
-1.77787 -1.04140 -0.33201
-1.77699 -1.03900 -0.33170
-1.77781 -1.03759 -0.33170
-1.77862 -1.03619 -0.33170
-1.78371 -1.03727 -0.33250
-1.77581 -1.02332 -0.33029
-1.77747 -1.02241 -0.33046
-1.77742 -1.02052 -0.33030
-1.77480 -1.01715 -0.32967
-1.77385 -1.01475 -0.32957
-1.77294 -1.01238 -0.32925
-1.77288 -1.01049 -0.32910
-1.77453 -1.00958 -0.32926
-1.77707 -1.00917 -0.32937
-1.77526 -1.00629 -0.32911
-1.77520 -1.00440 -0.32895
-1.77599 -1.00300 -0.32896
-1.77764 -1.00208 -0.32912
-1.77757 -1.00020 -0.32897
-1.77663 -0.99783 -0.32865
-1.77656 -0.99594 -0.32849
-1.77565 -0.99359 -0.32797
-1.77471 -0.99123 -0.32765
-1.77894 -0.99175 -0.32829
-1.78662 -0.99419 -0.32957
-1.76241 -0.97889 -0.32475
-1.76836 -0.98037 -0.32570
-1.64121 -1.16535 -0.32546
-1.76132 -1.24854 -0.34908
-1.78164 -1.26084 -0.35292
-1.78667 -1.26228 -0.35372
-1.78686 -1.26030 -0.35356
-1.78624 -1.25775 -0.35325
-1.78723 -1.25634 -0.35325
-1.78660 -1.25380 -0.35294
-1.78513 -1.25067 -0.35269
-1.78450 -1.24813 -0.35237
-1.78632 -1.24731 -0.35231
-1.78887 -1.24698 -0.35309
-1.78823 -1.24444 -0.35278
-1.78762 -1.24193 -0.35223
-1.78694 -1.23937 -0.35214
-1.78633 -1.23685 -0.35160
-1.78649 -1.23488 -0.35144
-1.78665 -1.23291 -0.35129
-1.78600 -1.23038 -0.35097
-1.78453 -1.22729 -0.35050
-1.78468 -1.22533 -0.35034
-1.78486 -1.22338 -0.34996
-1.78420 -1.22086 -0.34964
-1.78434 -1.21889 -0.34949
-1.78449 -1.21693 -0.34933
-1.78303 -1.21387 -0.34863
-1.77990 -1.20969 -0.34784
-1.78288 -1.18923 -0.34689
-1.78299 -1.18727 -0.34674
-1.78310 -1.18532 -0.34658
-1.78322 -1.18337 -0.34642
-1.78415 -1.18196 -0.34643
-1.78343 -1.17946 -0.34611
-1.78357 -1.17753 -0.34573
-1.78447 -1.17610 -0.34596
-1.78374 -1.17361 -0.34564
-1.78305 -1.17114 -0.34510
-1.78315 -1.16919 -0.34495
-1.78407 -1.16778 -0.34495
-1.78330 -1.16527 -0.34486
-1.78260 -1.16281 -0.34432
-1.78269 -1.16086 -0.34416
-1.78360 -1.15945 -0.34417
-1.78697 -1.15964 -0.34487
-1.78128 -1.12819 -0.34163
-1.77887 -1.12469 -0.34078
-1.77975 -1.12329 -0.34078
-1.78064 -1.12188 -0.34078
-1.78069 -1.11995 -0.34063
-1.77990 -1.11750 -0.34031
-1.78081 -1.11611 -0.34009
-1.78085 -1.11418 -0.33994
-1.78173 -1.11278 -0.33994
-1.78180 -1.11087 -0.33957
-1.78100 -1.10842 -0.33925
-1.78016 -1.10595 -0.33915
-1.77935 -1.10351 -0.33884
-1.77855 -1.10106 -0.33852
-1.77857 -1.09914 -0.33837
-1.78028 -1.09825 -0.33853
-1.78535 -1.09944 -0.33933
-1.77619 -1.06692 -0.33561
-1.77449 -1.06400 -0.33513
-1.77536 -1.06262 -0.33492
-1.77789 -1.06223 -0.33524
-1.77872 -1.06083 -0.33525
-1.77786 -1.05841 -0.33493
-1.77615 -1.05550 -0.33446
-1.77698 -1.05410 -0.33446
-1.77778 -1.05268 -0.33468
-1.77779 -1.05079 -0.33431
-1.77692 -1.04838 -0.33399
-1.77772 -1.04696 -0.33421
-1.77769 -1.04506 -0.33405
-1.77681 -1.04266 -0.33374
-1.77760 -1.04124 -0.33396
-1.77757 -1.03934 -0.33380
-1.77839 -1.03793 -0.33381
-1.78176 -1.03802 -0.33429
-1.77772 -1.00954 -0.33103
-1.77422 -1.00570 -0.33024
-1.77330 -1.00333 -0.32992
-1.77409 -1.00193 -0.32992
-1.77574 -1.00101 -0.33009
-1.77567 -0.99913 -0.32993
-1.77556 -0.99723 -0.32999
-1.77462 -0.99486 -0.32967
-1.77369 -0.99250 -0.32936
-1.77533 -0.99158 -0.32952
-1.78473 -0.99498 -0.33112
-1.76651 -0.98300 -0.32782
-1.74334 -1.23579 -0.34759
-1.78463 -1.26295 -0.35539
-1.78481 -1.26097 -0.35524
-1.78500 -1.25899 -0.35508
-1.78441 -1.25647 -0.35453
-1.78298 -1.25336 -0.35406
-1.78235 -1.25081 -0.35374
-1.78333 -1.24941 -0.35374
-1.78516 -1.24859 -0.35368
-1.78857 -1.24887 -0.35416
-1.78713 -1.24577 -0.35369
-1.78649 -1.24323 -0.35337
-1.78581 -1.24067 -0.35328
-1.78439 -1.23760 -0.35258
-1.78290 -1.23448 -0.35233
-1.78387 -1.23307 -0.35233
-1.78484 -1.23167 -0.35234
-1.78416 -1.22912 -0.35224
-1.78431 -1.22715 -0.35209
-1.78528 -1.22574 -0.35209
-1.78380 -1.22266 -0.35162
-1.78232 -1.21958 -0.35114
-1.78247 -1.21761 -0.35098
-1.78340 -1.21619 -0.35121
-1.78439 -1.21480 -0.35099
-1.78290 -1.21173 -0.35051
-1.78140 -1.20866 -0.35003
-1.77908 -1.20504 -0.34940
-1.77922 -1.20308 -0.34924
-1.78098 -1.20223 -0.34940
-1.78114 -1.20029 -0.34902
-1.78045 -1.19778 -0.34870
-1.77812 -1.19418 -0.34807
-1.77906 -1.19277 -0.34807
-1.78023 -1.18746 -0.34776
-1.78114 -1.18604 -0.34799
-1.78207 -1.18463 -0.34799
-1.78300 -1.18322 -0.34800
-1.78229 -1.18073 -0.34768
-1.78240 -1.17878 -0.34752
-1.78330 -1.17735 -0.34775
-1.78258 -1.17485 -0.34743
-1.78185 -1.17236 -0.34712
-1.78195 -1.17041 -0.34696
-1.78122 -1.16793 -0.34664
-1.78214 -1.16652 -0.34664
-1.78224 -1.16457 -0.34649
-1.78150 -1.16209 -0.34617
-1.77993 -1.15907 -0.34569
-1.78171 -1.15822 -0.34563
-1.77941 -1.12897 -0.34258
-1.77696 -1.12545 -0.34194
-1.77699 -1.12350 -0.34200
-1.77871 -1.12263 -0.34217
-1.78039 -1.12173 -0.34255
-1.78128 -1.12032 -0.34255
-1.78049 -1.11787 -0.34224
-1.77886 -1.11489 -0.34176
-1.77890 -1.11296 -0.34160
-1.77981 -1.11158 -0.34139
-1.77985 -1.10965 -0.34123
-1.77988 -1.10773 -0.34107
-1.77992 -1.10580 -0.34092
-1.77911 -1.10336 -0.34060
-1.77662 -1.09987 -0.33996
-1.77833 -1.09899 -0.34012
-1.78172 -1.09914 -0.34061
-1.77848 -1.06830 -0.33783
-1.77594 -1.06487 -0.33719
-1.77678 -1.06347 -0.33720
-1.77761 -1.06207 -0.33720
-1.77760 -1.06016 -0.33704
-1.77759 -1.05825 -0.33689
-1.77842 -1.05685 -0.33689
-1.77756 -1.05444 -0.33657
-1.77669 -1.05203 -0.33625
-1.77582 -1.04962 -0.33594
-1.77668 -1.04824 -0.33572
-1.77750 -1.04684 -0.33573
-1.77751 -1.04495 -0.33535
-1.77575 -1.04203 -0.33509
-1.77404 -1.03915 -0.33440
-1.77486 -1.03775 -0.33440
-1.77738 -1.03735 -0.33473
-1.78417 -1.03942 -0.33585
-1.77312 -1.00508 -0.33179
-1.77306 -1.00319 -0.33163
-1.77385 -1.00179 -0.33163
-1.77378 -0.99991 -0.33148
-1.77456 -0.99851 -0.33148
-1.77535 -0.99711 -0.33148
-1.77355 -0.99426 -0.33101
-1.77175 -0.99141 -0.33053
-1.77770 -0.99290 -0.33150
-1.78452 -0.99486 -0.33262
-1.66722 -1.18579 -0.33410
-1.76230 -1.25133 -0.35296
-1.77939 -1.26135 -0.35619
-1.78358 -1.26220 -0.35707
-1.78376 -1.26023 -0.35691
-1.78479 -1.25884 -0.35668
-1.78491 -1.25682 -0.35698
-1.78432 -1.25430 -0.35644
-1.78291 -1.25121 -0.35573
-1.78309 -1.24924 -0.35557
-1.78731 -1.25009 -0.35622
-1.78428 -1.23544 -0.35447
-1.78119 -1.23122 -0.35367
-1.77973 -1.22813 -0.35319
-1.77988 -1.22617 -0.35303
-1.78247 -1.22588 -0.35336
-1.78588 -1.22615 -0.35385
-1.78278 -1.22195 -0.35304
-1.78127 -1.21885 -0.35279
-1.78063 -1.21635 -0.35224
-1.78074 -1.21437 -0.35231
-1.78088 -1.21241 -0.35216
-1.78020 -1.20990 -0.35184
-1.77952 -1.20738 -0.35152
-1.77884 -1.20487 -0.35120
-1.77976 -1.20345 -0.35143
-1.77828 -1.20041 -0.35072
-1.77756 -1.19788 -0.35063
-1.77851 -1.19648 -0.35063
-1.77866 -1.19454 -0.35025
-1.77878 -1.19259 -0.35009
-1.77890 -1.19064 -0.34994
-1.78151 -1.19035 -0.35004
-1.77999 -1.18730 -0.34956
-1.77928 -1.18480 -0.34924
-1.78024 -1.18342 -0.34902
-1.78032 -1.18145 -0.34908
-1.77964 -1.17897 -0.34854
-1.77975 -1.17702 -0.34839
-1.77985 -1.17507 -0.34823
-1.77995 -1.17313 -0.34807
-1.78005 -1.17118 -0.34791
-1.78015 -1.16923 -0.34776
-1.78021 -1.16726 -0.34782
-1.77948 -1.16478 -0.34750
-1.77957 -1.16283 -0.34735
-1.77884 -1.16035 -0.34703
-1.77889 -1.15839 -0.34709
-1.78063 -1.15752 -0.34726
-1.77833 -1.12828 -0.34419
-1.77672 -1.12530 -0.34370
-1.77677 -1.12337 -0.34355
-1.77766 -1.12196 -0.34355
-1.77768 -1.12002 -0.34361
-1.77692 -1.11758 -0.34308
-1.77693 -1.11564 -0.34314
-1.77698 -1.11371 -0.34298
-1.77702 -1.11178 -0.34282
-1.77789 -1.11038 -0.34283
-1.77622 -1.10739 -0.34257
-1.77713 -1.10601 -0.34235
-1.77797 -1.10459 -0.34257
-1.77632 -1.10162 -0.34209
-1.77554 -1.09920 -0.34155
-1.77557 -1.09728 -0.34140
-1.77979 -1.09795 -0.34204
-1.77238 -1.06654 -0.33817
-1.77322 -1.06515 -0.33817
-1.77406 -1.06375 -0.33817
-1.77490 -1.06235 -0.33818
-1.77489 -1.06044 -0.33802
-1.77400 -1.05801 -0.33792
-1.77483 -1.05661 -0.33792
-1.77482 -1.05470 -0.33776
-1.77395 -1.05230 -0.33744
-1.77478 -1.05090 -0.33745
-1.77391 -1.04849 -0.33713
-1.77388 -1.04659 -0.33697
-1.77471 -1.04519 -0.33698
-1.77553 -1.04379 -0.33698
-1.77380 -1.04089 -0.33650
-1.77292 -1.03849 -0.33618
-1.77462 -1.03761 -0.33613
-1.77885 -1.03820 -0.33678
-1.77301 -1.00871 -0.33381
-1.76948 -1.00486 -0.33322
-1.76942 -1.00297 -0.33307
-1.77195 -1.00257 -0.33318
-1.77271 -1.00115 -0.33340
-1.77178 -0.99878 -0.33308
-1.77257 -0.99738 -0.33308
-1.77249 -0.99550 -0.33292
-1.76987 -0.99219 -0.33207
-1.76979 -0.99031 -0.33191
-1.77918 -0.99373 -0.33353
-1.77307 -0.98848 -0.33224
-1.70457 -1.21438 -0.34403
-1.76667 -1.25653 -0.35613
-1.77728 -1.26196 -0.35831
-1.77989 -1.26170 -0.35864
-1.78088 -1.26030 -0.35864
-1.78107 -1.25832 -0.35849
-1.78126 -1.25635 -0.35833
-1.77979 -1.25322 -0.35807
-1.77917 -1.25068 -0.35775
-1.77934 -1.24871 -0.35759
-1.78844 -1.25299 -0.35899
-1.77928 -1.21955 -0.35421
-1.77861 -1.21703 -0.35389
-1.77957 -1.21563 -0.35389
-1.77968 -1.21365 -0.35396
-1.77737 -1.21002 -0.35332
-1.77669 -1.20751 -0.35300
-1.77765 -1.20611 -0.35300
-1.77860 -1.20471 -0.35300
-1.77951 -1.20328 -0.35323
-1.77883 -1.20077 -0.35291
-1.77814 -1.19826 -0.35259
-1.77826 -1.19631 -0.35243
-1.77839 -1.19436 -0.35228
-1.77687 -1.19130 -0.35179
-1.77617 -1.18880 -0.35147
-1.77792 -1.18795 -0.35164
-1.77807 -1.18602 -0.35125
-1.77818 -1.18407 -0.35110
-1.77912 -1.18267 -0.35110
-1.77840 -1.18017 -0.35078
-1.77769 -1.17768 -0.35046
-1.77862 -1.17627 -0.35046
-1.77954 -1.17487 -0.35047
-1.77964 -1.17292 -0.35031
-1.77810 -1.16989 -0.34983
-1.77737 -1.16740 -0.34951
-1.77829 -1.16600 -0.34951
-1.77921 -1.16460 -0.34951
-1.77599 -1.16050 -0.34871
-1.77688 -1.15907 -0.34893
-1.77948 -1.15877 -0.34904
-1.77953 -1.15681 -0.34910
-1.77465 -1.15164 -0.34797
-1.77224 -1.14809 -0.34732
-1.77633 -1.12898 -0.34601
-1.77556 -1.12652 -0.34569
-1.77478 -1.12407 -0.34537
-1.77483 -1.12214 -0.34521
-1.77658 -1.12128 -0.34515
-1.77743 -1.11986 -0.34538
-1.77667 -1.11743 -0.34484
-1.77672 -1.11550 -0.34468
-1.77593 -1.11305 -0.34436
-1.77593 -1.11111 -0.34442
-1.77514 -1.10866 -0.34410
-1.77601 -1.10726 -0.34410
-1.77604 -1.10534 -0.34395
-1.77440 -1.10237 -0.34346
-1.77359 -1.09993 -0.34314
-1.77611 -1.09955 -0.34369
-1.78198 -1.10124 -0.34489
-1.77380 -1.06930 -0.34060
-1.76957 -1.06485 -0.33964
-1.77126 -1.06396 -0.33980
-1.77379 -1.06358 -0.34013
-1.77463 -1.06218 -0.34013
-1.77374 -1.05975 -0.34003
-1.77373 -1.05784 -0.33987
-1.77286 -1.05544 -0.33955
-1.77285 -1.05353 -0.33939
-1.77280 -1.05161 -0.33945
-1.77278 -1.04971 -0.33929
-1.77275 -1.04781 -0.33913
-1.77358 -1.04641 -0.33913
-1.77355 -1.04451 -0.33898
-1.77182 -1.04161 -0.33849
-1.77094 -1.03921 -0.33817
-1.77176 -1.03782 -0.33817
-1.77769 -1.03941 -0.33915
-1.77276 -1.00857 -0.33553
-1.76838 -1.00423 -0.33477
-1.76917 -1.00284 -0.33478
-1.76996 -1.00144 -0.33478
-1.76903 -0.99907 -0.33446
-1.77065 -0.99814 -0.33484
-1.77060 -0.99628 -0.33447
-1.76881 -0.99343 -0.33398
-1.76959 -0.99204 -0.33398
-1.78157 -0.99691 -0.33610
-1.69148 -1.20506 -0.34318
-1.76479 -1.25519 -0.35786
-1.77784 -1.26236 -0.36031
-1.77961 -1.26151 -0.36070
-1.78061 -1.26010 -0.36071
-1.78079 -1.25813 -0.36055
-1.78095 -1.25613 -0.36062
-1.77952 -1.25302 -0.36013
-1.78053 -1.25164 -0.35991
-1.78314 -1.25137 -0.36024
-1.78045 -1.22242 -0.35696
-1.77653 -1.21767 -0.35598
-1.77664 -1.21569 -0.35605
-1.77763 -1.21431 -0.35583
-1.77774 -1.21233 -0.35590
-1.77870 -1.21092 -0.35590
-1.77720 -1.20786 -0.35541
-1.77734 -1.20590 -0.35525
-1.77829 -1.20450 -0.35526
-1.77760 -1.20199 -0.35494
-1.77685 -1.19944 -0.35506
-1.77701 -1.19751 -0.35468
-1.77877 -1.19665 -0.35485
-1.77808 -1.19415 -0.35452
-1.77656 -1.19110 -0.35404
-1.77668 -1.18915 -0.35388
-1.77844 -1.18829 -0.35405
-1.77787 -1.18387 -0.35334
-1.77799 -1.18192 -0.35318
-1.77892 -1.18051 -0.35318
-1.77741 -1.17749 -0.35247
-1.77505 -1.17391 -0.35182
-1.77433 -1.17143 -0.35150
-1.77690 -1.17111 -0.35183
-1.77864 -1.17025 -0.35200
-1.77709 -1.16722 -0.35151
-1.77554 -1.16420 -0.35103
-1.77648 -1.16282 -0.35081
-1.77654 -1.16085 -0.35087
-1.77498 -1.15783 -0.35039
-1.77421 -1.15534 -0.35029
-1.77346 -1.15286 -0.34997
-1.77354 -1.15092 -0.34981
-1.77445 -1.14952 -0.34981
-1.77284 -1.14650 -0.34954
-1.77126 -1.14349 -0.34906
-1.77130 -1.14154 -0.34912
-1.77226 -1.14018 -0.34868
-1.77067 -1.13718 -0.34820
-1.77156 -1.13579 -0.34820
-1.77412 -1.13545 -0.34853
-1.77169 -1.13193 -0.34788
-1.77591 -1.13265 -0.34854
-1.77514 -1.13019 -0.34821
-1.77353 -1.12720 -0.34773
-1.77358 -1.12527 -0.34757
-1.77364 -1.12334 -0.34741
-1.77369 -1.12142 -0.34725
-1.77460 -1.12004 -0.34703
-1.77545 -1.11862 -0.34726
-1.77467 -1.11616 -0.34693
-1.77387 -1.11372 -0.34661
-1.77308 -1.11127 -0.34629
-1.77312 -1.10934 -0.34613
-1.77316 -1.10742 -0.34597
-1.77400 -1.10600 -0.34619
-1.77406 -1.10410 -0.34581
-1.77242 -1.10114 -0.34533
-1.77242 -1.09920 -0.34539
-1.77412 -1.09832 -0.34556
-1.78086 -1.10055 -0.34670
-1.77102 -1.06763 -0.34186
-1.77183 -1.06621 -0.34208
-1.77183 -1.06431 -0.34192
-1.77267 -1.06291 -0.34192
-1.77181 -1.06050 -0.34160
-1.77180 -1.05859 -0.34144
-1.77091 -1.05616 -0.34133
-1.77177 -1.05478 -0.34112
-1.77260 -1.05339 -0.34112
-1.77255 -1.05147 -0.34118
-1.77253 -1.04956 -0.34102
-1.77248 -1.04765 -0.34108
-1.77163 -1.04526 -0.34054
-1.77158 -1.04335 -0.34059
-1.77155 -1.04145 -0.34043
-1.76982 -1.03855 -0.33995
-1.77063 -1.03715 -0.33995
-1.77315 -1.03675 -0.34028
-1.76909 -1.00833 -0.33718
-1.76731 -1.00547 -0.33669
-1.76722 -1.00357 -0.33674
-1.76886 -1.00266 -0.33691
-1.76880 -1.00078 -0.33675
-1.76872 -0.99890 -0.33659
-1.77034 -0.99797 -0.33697
-1.76941 -0.99561 -0.33665
-1.76764 -0.99278 -0.33595
-1.76753 -0.99088 -0.33600
-1.77864 -0.99527 -0.33797
-1.78118 -0.99484 -0.33808
-1.64690 -1.17526 -0.33629
-1.75468 -1.25009 -0.35809
-1.77335 -1.26128 -0.36171
-1.77676 -1.26159 -0.36220
-1.77772 -1.26017 -0.36244
-1.77875 -1.25879 -0.36221
-1.77893 -1.25681 -0.36205
-1.77831 -1.25427 -0.36173
-1.77766 -1.25171 -0.36163
-1.77867 -1.25033 -0.36141
-1.78208 -1.25063 -0.36190
-1.78577 -1.22815 -0.35985
-1.77613 -1.21946 -0.35795
-1.77465 -1.21638 -0.35747
-1.77561 -1.21498 -0.35747
-1.77657 -1.21358 -0.35747
-1.77749 -1.21216 -0.35770
-1.77519 -1.20853 -0.35705
-1.77614 -1.20713 -0.35706
-1.77712 -1.20575 -0.35683
-1.77644 -1.20324 -0.35651
-1.77572 -1.20072 -0.35641
-1.77503 -1.19821 -0.35609
-1.77598 -1.19681 -0.35609
-1.77610 -1.19486 -0.35593
-1.77540 -1.19235 -0.35561
-1.77634 -1.19095 -0.35561
-1.77977 -1.19122 -0.35588
-1.77025 -1.16273 -0.35199
-1.77526 -1.16401 -0.35303
-1.77865 -1.16423 -0.35353
-1.77379 -1.15905 -0.35239
-1.77140 -1.15550 -0.35173
-1.77145 -1.15354 -0.35180
-1.77319 -1.15268 -0.35196
-1.77409 -1.15128 -0.35197
-1.77417 -1.14934 -0.35181
-1.77259 -1.14634 -0.35132
-1.77101 -1.14333 -0.35083
-1.77191 -1.14194 -0.35083
-1.77281 -1.14054 -0.35084
-1.77288 -1.13860 -0.35068
-1.77295 -1.13667 -0.35052
-1.77138 -1.13370 -0.34981
-1.77061 -1.13124 -0.34948
-1.76901 -1.12825 -0.34899
-1.76990 -1.12685 -0.34900
-1.77082 -1.12548 -0.34878
-1.77087 -1.12355 -0.34862
-1.77092 -1.12162 -0.34846
-1.77097 -1.11970 -0.34830
-1.77188 -1.11832 -0.34808
-1.77277 -1.11692 -0.34809
-1.77278 -1.11498 -0.34815
-1.77199 -1.11253 -0.34782
-1.77286 -1.11113 -0.34783
-1.77203 -1.10867 -0.34772
-1.77207 -1.10675 -0.34756
-1.77294 -1.10535 -0.34757
-1.77214 -1.10291 -0.34724
-1.77130 -1.10045 -0.34714
-1.77133 -1.09853 -0.34697
-1.77387 -1.09817 -0.34731
-1.77977 -1.09988 -0.34830
-1.76990 -1.06886 -0.34381
-1.76737 -1.06542 -0.34315
-1.76821 -1.06403 -0.34316
-1.76986 -1.06312 -0.34354
-1.77070 -1.06173 -0.34354
-1.76899 -1.05881 -0.34306
-1.76983 -1.05741 -0.34306
-1.77063 -1.05600 -0.34328
-1.77061 -1.05410 -0.34312
-1.77060 -1.05220 -0.34296
-1.77058 -1.05029 -0.34280
-1.76971 -1.04789 -0.34247
-1.76880 -1.04547 -0.34236
-1.77051 -1.04460 -0.34232
-1.76878 -1.04170 -0.34183
-1.76790 -1.03930 -0.34150
-1.76875 -1.03793 -0.34129
-1.77382 -1.03902 -0.34212
-1.76627 -1.00672 -0.33839
-1.76535 -1.00435 -0.33807
-1.76611 -1.00294 -0.33829
-1.76690 -1.00155 -0.33829
-1.76680 -0.99965 -0.33834
-1.76676 -0.99779 -0.33797
-1.76755 -0.99640 -0.33797
-1.76406 -0.99260 -0.33694
-1.76825 -0.99312 -0.33781
-1.78194 -0.99896 -0.34028
-1.71491 -1.22379 -0.35199
-1.76488 -1.25735 -0.36205
-1.77632 -1.26339 -0.36419
-1.77732 -1.26199 -0.36420
-1.77590 -1.25887 -0.36371
-1.77769 -1.25804 -0.36388
-1.77949 -1.25721 -0.36404
-1.77809 -1.25412 -0.36333
-1.77666 -1.25101 -0.36284
-1.77765 -1.24961 -0.36284
-1.78671 -1.25387 -0.36449
-1.77489 -1.22067 -0.35999
-1.77341 -1.21759 -0.35950
-1.77437 -1.21619 -0.35950
-1.77533 -1.21479 -0.35950
-1.77629 -1.21339 -0.35951
-1.77640 -1.21141 -0.35957
-1.77491 -1.20834 -0.35908
-1.77341 -1.20528 -0.35859
-1.77436 -1.20388 -0.35859
-1.77531 -1.20248 -0.35860
-1.77462 -1.19997 -0.35827
-1.77478 -1.19804 -0.35789
-1.77491 -1.19609 -0.35772
-1.77421 -1.19359 -0.35740
-1.77437 -1.19166 -0.35701
-1.77613 -1.19081 -0.35718
-1.77510 -1.16191 -0.35466
-1.77189 -1.15781 -0.35384
-1.77115 -1.15534 -0.35351
-1.77123 -1.15340 -0.35335
-1.77214 -1.15200 -0.35335
-1.77305 -1.15060 -0.35336
-1.77147 -1.14759 -0.35287
-1.76989 -1.14459 -0.35237
-1.77079 -1.14319 -0.35238
-1.77255 -1.14235 -0.35233
-1.77345 -1.14095 -0.35233
-1.77269 -1.13848 -0.35200
-1.77193 -1.13602 -0.35168
-1.77116 -1.13356 -0.35135
-1.76873 -1.13004 -0.35070
-1.76879 -1.12811 -0.35054
-1.77301 -1.12883 -0.35120
-1.77306 -1.12690 -0.35104
-1.76892 -1.12232 -0.35027
-1.76901 -1.12041 -0.34989
-1.76989 -1.11901 -0.34990
-1.77157 -1.11812 -0.35028
-1.77245 -1.11673 -0.35029
-1.77166 -1.11428 -0.34996
-1.77171 -1.11236 -0.34980
-1.77008 -1.10939 -0.34931
-1.77008 -1.10745 -0.34937
-1.77099 -1.10607 -0.34915
-1.77186 -1.10467 -0.34916
-1.77019 -1.10169 -0.34888
-1.76938 -1.09925 -0.34856
-1.77027 -1.09787 -0.34834
-1.77279 -1.09750 -0.34890
-1.77281 -1.09558 -0.34873
-1.76864 -1.09107 -0.34775
-1.76953 -1.08970 -0.34753
-1.76619 -1.08572 -0.34671
-1.76371 -1.08228 -0.34584
-1.76453 -1.08087 -0.34606
-1.76375 -1.06514 -0.34439
-1.76458 -1.06375 -0.34439
-1.76624 -1.06284 -0.34478
-1.76873 -1.06245 -0.34533
-1.76960 -1.06107 -0.34511
-1.76871 -1.05864 -0.34500
-1.76955 -1.05725 -0.34501
-1.77038 -1.05585 -0.34501
-1.77036 -1.05395 -0.34485
-1.76950 -1.05154 -0.34452
-1.77033 -1.05015 -0.34453
-1.76861 -1.04724 -0.34404
-1.76859 -1.04535 -0.34387
-1.76944 -1.04397 -0.34366
-1.76856 -1.04157 -0.34334
-1.76853 -1.03967 -0.34318
-1.77105 -1.03928 -0.34351
-1.76774 -1.00941 -0.34102
-1.76514 -1.00608 -0.34015
-1.76422 -1.00371 -0.33982
-1.76497 -1.00230 -0.34004
-1.76494 -1.00044 -0.33967
-1.76487 -0.99856 -0.33950
-1.76737 -0.99813 -0.33984
-1.76816 -0.99674 -0.33984
-1.76554 -0.99343 -0.33897
-1.76457 -0.99105 -0.33886
-1.77137 -0.99304 -0.34002
-1.74274 -1.24365 -0.35978
-1.76942 -1.26058 -0.36509
-1.77523 -1.26262 -0.36609
-1.77623 -1.26122 -0.36609
-1.77645 -1.25927 -0.36570
-1.77583 -1.25672 -0.36537
-1.77602 -1.25475 -0.36521
-1.77462 -1.25167 -0.36449
-1.77722 -1.25140 -0.36483
-1.77214 -1.21878 -0.36175
-1.77069 -1.21572 -0.36103
-1.77246 -1.21488 -0.36120
-1.77427 -1.21406 -0.36114
-1.77360 -1.21155 -0.36082
-1.77374 -1.20960 -0.36066
-1.77384 -1.20762 -0.36072
-1.77401 -1.20569 -0.36033
-1.77414 -1.20373 -0.36017
-1.77264 -1.20067 -0.35968
-1.77359 -1.19927 -0.35968
-1.77453 -1.19787 -0.35968
-1.77305 -1.19484 -0.35897
-1.77072 -1.19124 -0.35831
-1.77248 -1.19039 -0.35848
-1.77830 -1.19227 -0.35970
-1.77066 -1.15901 -0.35606
-1.76913 -1.15601 -0.35534
-1.76922 -1.15408 -0.35518
-1.77098 -1.15324 -0.35512
-1.77189 -1.15184 -0.35513
-1.77280 -1.15044 -0.35513
-1.77122 -1.14743 -0.35464
-1.77130 -1.14550 -0.35448
-1.77054 -1.14303 -0.35415
-1.77148 -1.14165 -0.35393
-1.77238 -1.14026 -0.35393
-1.77244 -1.13832 -0.35377
-1.77085 -1.13533 -0.35328
-1.76925 -1.13234 -0.35279
-1.76928 -1.13039 -0.35285
-1.77020 -1.12901 -0.35263
-1.77522 -1.13024 -0.35368
-1.76864 -1.12214 -0.35225
-1.76873 -1.12023 -0.35187
-1.76788 -1.11774 -0.35198
-1.76623 -1.11475 -0.35171
-1.76717 -1.11340 -0.35127
-1.76804 -1.11200 -0.35128
-1.76892 -1.11061 -0.35128
-1.76812 -1.10816 -0.35095
-1.76816 -1.10624 -0.35079
-1.76823 -1.10435 -0.35041
-1.76910 -1.10295 -0.35041
-1.76913 -1.10103 -0.35025
-1.76916 -1.09912 -0.35009
-1.76751 -1.09616 -0.34959
-1.76754 -1.09425 -0.34943
-1.76588 -1.09130 -0.34894
-1.76506 -1.08887 -0.34861
-1.76676 -1.08799 -0.34878
-1.76762 -1.08660 -0.34878
-1.76676 -1.08415 -0.34867
-1.76596 -1.08175 -0.34813
-1.76513 -1.07932 -0.34780
-1.76430 -1.07690 -0.34747
-1.76515 -1.07551 -0.34748
-1.76263 -1.07207 -0.34682
-1.76175 -1.06963 -0.34671
-1.76594 -1.07027 -0.34759
-1.76847 -1.06990 -0.34793
-1.76594 -1.06646 -0.34726
-1.76509 -1.06405 -0.34694
-1.76593 -1.06266 -0.34694
-1.76676 -1.06126 -0.34694
-1.76760 -1.05987 -0.34695
-1.76843 -1.05847 -0.34695
-1.76761 -1.05609 -0.34641
-1.76759 -1.05419 -0.34625
-1.76842 -1.05279 -0.34625
-1.76843 -1.05091 -0.34587
-1.76672 -1.04801 -0.34538
-1.76585 -1.04561 -0.34505
-1.76667 -1.04421 -0.34505
-1.76494 -1.04132 -0.34456
-1.76491 -1.03942 -0.34440
-1.76743 -1.03903 -0.34473
-1.77335 -1.04063 -0.34573
-1.76495 -1.00782 -0.34202
-1.76232 -1.00447 -0.34136
-1.76225 -1.00259 -0.34120
-1.76476 -1.00217 -0.34153
-1.76555 -1.00078 -0.34154
-1.76551 -0.99892 -0.34116
-1.76458 -0.99656 -0.34083
-1.76186 -0.99319 -0.34060
-1.76440 -0.99279 -0.34072
-1.77037 -0.99431 -0.34151
-1.75911 -0.98616 -0.33919
-1.67075 -1.19626 -0.34730
-1.75351 -1.25343 -0.36430
-1.76975 -1.26293 -0.36747
-1.77396 -1.26382 -0.36814
-1.77335 -1.26127 -0.36781
-1.77353 -1.25930 -0.36765
-1.77372 -1.25733 -0.36749
-1.77310 -1.25479 -0.36716
-1.77329 -1.25283 -0.36699
-1.77266 -1.25029 -0.36667
-1.77684 -1.25114 -0.36756
-1.77399 -1.22418 -0.36461
-1.76849 -1.21832 -0.36305
-1.76864 -1.21637 -0.36289
-1.76960 -1.21497 -0.36289
-1.77059 -1.21360 -0.36267
-1.77154 -1.21220 -0.36268
-1.77247 -1.21078 -0.36290
-1.77179 -1.20827 -0.36257
-1.77196 -1.20634 -0.36219
-1.77128 -1.20383 -0.36186
-1.77138 -1.20186 -0.36192
-1.77070 -1.19935 -0.36159
-1.77082 -1.19740 -0.36143
-1.77177 -1.19601 -0.36143
-1.77107 -1.19351 -0.36110
-1.77117 -1.19154 -0.36116
-1.77129 -1.18959 -0.36100
-1.77468 -1.18984 -0.36150
-1.76702 -1.15862 -0.35733
-1.76794 -1.15722 -0.35733
-1.76885 -1.15583 -0.35734
-1.76893 -1.15389 -0.35717
-1.76902 -1.15196 -0.35701
-1.76992 -1.15056 -0.35701
-1.76915 -1.14807 -0.35690
-1.76922 -1.14614 -0.35674
-1.76930 -1.14421 -0.35658
-1.77020 -1.14281 -0.35658
-1.76944 -1.14034 -0.35625
-1.76868 -1.13788 -0.35592
-1.76955 -1.13646 -0.35615
-1.76961 -1.13454 -0.35598
-1.76885 -1.13208 -0.35565
-1.76808 -1.12962 -0.35532
-1.76813 -1.12769 -0.35516
-1.76450 -1.10589 -0.35226
-1.76036 -1.10136 -0.35126
-1.76290 -1.10102 -0.35160
-1.77046 -1.10380 -0.35293
-1.76798 -1.10032 -0.35227
-1.76550 -1.09684 -0.35161
-1.76552 -1.09493 -0.35145
-1.76639 -1.09353 -0.35145
-1.76641 -1.09162 -0.35129
-1.76640 -1.08969 -0.35134
-1.76558 -1.08726 -0.35101
-1.76559 -1.08535 -0.35085
-1.76474 -1.08291 -0.35073
-1.76559 -1.08152 -0.35074
-1.76560 -1.07961 -0.35057
-1.76393 -1.07667 -0.35008
-1.76481 -1.07530 -0.34986
-1.76397 -1.07288 -0.34953
-1.76397 -1.07098 -0.34937
-1.76650 -1.07061 -0.34971
-1.76566 -1.06820 -0.34938
-1.76397 -1.06527 -0.34888
-1.76396 -1.06337 -0.34872
-1.76567 -1.06251 -0.34867
-1.76651 -1.06111 -0.34868
-1.76647 -1.05919 -0.34873
-1.76561 -1.05679 -0.34840
-1.76645 -1.05539 -0.34840
-1.76558 -1.05299 -0.34807
-1.76472 -1.05059 -0.34774
-1.76470 -1.04869 -0.34758
-1.76552 -1.04730 -0.34758
-1.76635 -1.04590 -0.34759
-1.76548 -1.04351 -0.34726
-1.76375 -1.04061 -0.34676
-1.76454 -1.03920 -0.34698
-1.76536 -1.03781 -0.34698
-1.76873 -1.03791 -0.34749
-1.76302 -1.00856 -0.34377
-1.76210 -1.00619 -0.34344
-1.76286 -1.00478 -0.34366
-1.76283 -1.00292 -0.34328
-1.76276 -1.00104 -0.34312
-1.76355 -0.99965 -0.34312
-1.76345 -0.99775 -0.34317
-1.76252 -0.99539 -0.34284
-1.75986 -0.99206 -0.34218
-1.76322 -0.99213 -0.34268
-1.76741 -0.99265 -0.34356
-1.75615 -0.98450 -0.34123
-1.74230 -0.97493 -0.33839
-1.63518 -1.17079 -0.34208
-1.74759 -1.24919 -0.36539
-1.76783 -1.26155 -0.36942
-1.77287 -1.26304 -0.37003
-1.77226 -1.26050 -0.36970
-1.77245 -1.25853 -0.36954
-1.77344 -1.25713 -0.36954
-1.77041 -1.25288 -0.36871
-1.77059 -1.25092 -0.36854
-1.77560 -1.25236 -0.36939
-1.76980 -1.21923 -0.36564
-1.76832 -1.21615 -0.36514
-1.76847 -1.21420 -0.36498
-1.77024 -1.21336 -0.36515
-1.77120 -1.21196 -0.36515
-1.77215 -1.21056 -0.36516
-1.77148 -1.20806 -0.36483
-1.77161 -1.20610 -0.36466
-1.77093 -1.20360 -0.36433
-1.77107 -1.20164 -0.36417
-1.76960 -1.19861 -0.36344
-1.77054 -1.19721 -0.36345
-1.76903 -1.19416 -0.36295
-1.76834 -1.19166 -0.36262
-1.77010 -1.19082 -0.36279
-1.77513 -1.19217 -0.36363
-1.76753 -1.15895 -0.35971
-1.76680 -1.15648 -0.35938
-1.76853 -1.15562 -0.35955
-1.76944 -1.15422 -0.35956
-1.76791 -1.15123 -0.35884
-1.76796 -1.14928 -0.35889
-1.76889 -1.14791 -0.35868
-1.76649 -1.14437 -0.35801
-1.76573 -1.14190 -0.35768
-1.76746 -1.14104 -0.35785
-1.76753 -1.13911 -0.35768
-1.76760 -1.13718 -0.35752
-1.76767 -1.13526 -0.35736
-1.76690 -1.13280 -0.35703
-1.76613 -1.13034 -0.35669
-1.76619 -1.12842 -0.35653
-1.77456 -1.13179 -0.35804
-1.76599 -1.09908 -0.35412
-1.76351 -1.09560 -0.35345
-1.76437 -1.09421 -0.35346
-1.76439 -1.09230 -0.35329
-1.76445 -1.09041 -0.35291
-1.76531 -1.08902 -0.35292
-1.76532 -1.08711 -0.35275
-1.76366 -1.08417 -0.35225
-1.76368 -1.08226 -0.35209
-1.76453 -1.08087 -0.35209
-1.76457 -1.07898 -0.35171
-1.76374 -1.07656 -0.35138
-1.76455 -1.07515 -0.35160
-1.76372 -1.07273 -0.35127
-1.76456 -1.07134 -0.35127
-1.76625 -1.07046 -0.35144
-1.76794 -1.06957 -0.35161
-1.76625 -1.06665 -0.35112
-1.76452 -1.06371 -0.35083
-1.76536 -1.06232 -0.35084
-1.76620 -1.06092 -0.35084
-1.76700 -1.05951 -0.35106
-1.76533 -1.05662 -0.35034
-1.76362 -1.05371 -0.34984
-1.76358 -1.05179 -0.34989
-1.76444 -1.05042 -0.34968
-1.76357 -1.04802 -0.34935
-1.76355 -1.04612 -0.34919
-1.76267 -1.04373 -0.34885
-1.76268 -1.04185 -0.34847
-1.76265 -1.03996 -0.34831
-1.76347 -1.03857 -0.34831
-1.76599 -1.03818 -0.34865
-1.76595 -1.03629 -0.34849
-1.75915 -1.03043 -0.34677
-1.75567 -1.02653 -0.34615
-1.75648 -1.02515 -0.34615
-1.75984 -1.02525 -0.34666
-1.76182 -1.00787 -0.34595
-1.75919 -1.00452 -0.34528
-1.75998 -1.00314 -0.34528
-1.76163 -1.00223 -0.34545
-1.76327 -1.00133 -0.34563
-1.76235 -0.99897 -0.34529
-1.76231 -0.99711 -0.34492
-1.76309 -0.99572 -0.34492
-1.76044 -0.99239 -0.34425
-1.76552 -0.99342 -0.34509
-1.76028 -0.98865 -0.34392
-1.73871 -0.97472 -0.33956
-1.73516 -1.24238 -0.36461
-1.76344 -1.26052 -0.37011
-1.77005 -1.26314 -0.37129
-1.77184 -1.26231 -0.37146
-1.77204 -1.26034 -0.37130
-1.77139 -1.25778 -0.37119
-1.77080 -1.25526 -0.37063
-1.76935 -1.25214 -0.37036
-1.77355 -1.25301 -0.37104
-1.76781 -1.21991 -0.36705
-1.76714 -1.21739 -0.36672
-1.76810 -1.21600 -0.36672
-1.76906 -1.21460 -0.36672
-1.77002 -1.21321 -0.36673
-1.76935 -1.21070 -0.36640
-1.76867 -1.20819 -0.36606
-1.76800 -1.20568 -0.36573
-1.76892 -1.20427 -0.36596
-1.76905 -1.20231 -0.36579
-1.77081 -1.20147 -0.36596
-1.76768 -1.19731 -0.36513
-1.76699 -1.19481 -0.36479
-1.76793 -1.19342 -0.36480
-1.76966 -1.19255 -0.36519
-1.77060 -1.19115 -0.36520
-1.76805 -1.16128 -0.36160
-1.76484 -1.15718 -0.36076
-1.76575 -1.15579 -0.36077
-1.76749 -1.15494 -0.36094
-1.76757 -1.15300 -0.36077
-1.76600 -1.14999 -0.36027
-1.76608 -1.14806 -0.36011
-1.76695 -1.14665 -0.36033
-1.76620 -1.14418 -0.36000
-1.76545 -1.14172 -0.35967
-1.76466 -1.13923 -0.35955
-1.76639 -1.13838 -0.35972
-1.76646 -1.13645 -0.35956
-1.76655 -1.13454 -0.35917
-1.76576 -1.13206 -0.35906
-1.76585 -1.13016 -0.35868
-1.76920 -1.13034 -0.35941
-1.76658 -1.10138 -0.35598
-1.76323 -1.09736 -0.35536
-1.76493 -1.09649 -0.35553
-1.76495 -1.09458 -0.35537
-1.76327 -1.09161 -0.35509
-1.76245 -1.08918 -0.35475
-1.76331 -1.08779 -0.35476
-1.76417 -1.08640 -0.35476
-1.76503 -1.08500 -0.35476
-1.76417 -1.08256 -0.35465
-1.76418 -1.08065 -0.35448
-1.76254 -1.07774 -0.35376
-1.76171 -1.07532 -0.35343
-1.76171 -1.07342 -0.35326
-1.76259 -1.07205 -0.35305
-1.76343 -1.07065 -0.35305
-1.76512 -1.06977 -0.35323
-1.76765 -1.06940 -0.35357
-1.76346 -1.06497 -0.35234
-1.76177 -1.06205 -0.35184
-1.76176 -1.06015 -0.35168
-1.76175 -1.05825 -0.35151
-1.76174 -1.05636 -0.35135
-1.76173 -1.05446 -0.35118
-1.76256 -1.05307 -0.35118
-1.76339 -1.05168 -0.35119
-1.76421 -1.05029 -0.35119
-1.76335 -1.04789 -0.35086
-1.76078 -1.04448 -0.35019
-1.76072 -1.04257 -0.35024
-1.75985 -1.04018 -0.34990
-1.75979 -1.03827 -0.34995
-1.76145 -1.03738 -0.35013
-1.76227 -1.03599 -0.35013
-1.76309 -1.03460 -0.35013
-1.76050 -1.03122 -0.34946
-1.75791 -1.02784 -0.34879
-1.75702 -1.02546 -0.34846
-1.75700 -1.02359 -0.34808
-1.75693 -1.02169 -0.34813
-1.75688 -1.01981 -0.34796
-1.75683 -1.01793 -0.34780
-1.75684 -1.01609 -0.34720
-1.75761 -1.01468 -0.34742
-1.75670 -1.01231 -0.34709
-1.75582 -1.00996 -0.34654
-1.75995 -1.00864 -0.34727
-1.75732 -1.00530 -0.34659
-1.75897 -1.00440 -0.34677
-1.76065 -1.00352 -0.34673
-1.76140 -1.00211 -0.34694
-1.75877 -0.99877 -0.34627
-1.75952 -0.99737 -0.34649
-1.76031 -0.99598 -0.34649
-1.75766 -0.99265 -0.34582
-1.76184 -0.99318 -0.34671
-1.76692 -0.99421 -0.34756
-1.74880 -0.98219 -0.34385
-1.66630 -1.19706 -0.35385
-1.74896 -1.25435 -0.37097
-1.76517 -1.26387 -0.37420
-1.76857 -1.26419 -0.37471
-1.76716 -1.26108 -0.37421
-1.76819 -1.25971 -0.37398
-1.76918 -1.25831 -0.37399
-1.76934 -1.25632 -0.37405
-1.76878 -1.25383 -0.37326
-1.76813 -1.25127 -0.37315
-1.77076 -1.25104 -0.37326
-1.77252 -1.25018 -0.37367
-1.76786 -1.24481 -0.37248
-1.76565 -1.24117 -0.37158
-1.77045 -1.22380 -0.37105
-1.76655 -1.21904 -0.37004
-1.76670 -1.21709 -0.36987
-1.76685 -1.21513 -0.36970
-1.76699 -1.21318 -0.36954
-1.76795 -1.21179 -0.36954
-1.76809 -1.20984 -0.36938
-1.76741 -1.20733 -0.36904
-1.76755 -1.20538 -0.36887
-1.76772 -1.20345 -0.36848
-1.76704 -1.20095 -0.36815
-1.76635 -1.19845 -0.36781
-1.76648 -1.19650 -0.36764
-1.76661 -1.19455 -0.36748
-1.76510 -1.19150 -0.36697
-1.76685 -1.19066 -0.36715
-1.77270 -1.19257 -0.36817
-1.76336 -1.16020 -0.36425
-1.76180 -1.15718 -0.36374
-1.76357 -1.15635 -0.36369
-1.76613 -1.15604 -0.36404
-1.76622 -1.15411 -0.36387
-1.76547 -1.15163 -0.36353
-1.76394 -1.14865 -0.36281
-1.76319 -1.14618 -0.36247
-1.76492 -1.14533 -0.36265
-1.76585 -1.14395 -0.36243
-1.76507 -1.14147 -0.36231
-1.76352 -1.13849 -0.36159
-1.76438 -1.13708 -0.36181
-1.76528 -1.13569 -0.36181
-1.76451 -1.13323 -0.36148
-1.76292 -1.13024 -0.36097
-1.76381 -1.12885 -0.36098
-1.77131 -1.13168 -0.36256
-1.76526 -1.10249 -0.35904
-1.76111 -1.09797 -0.35802
-1.76117 -1.09608 -0.35764
-1.76204 -1.09469 -0.35764
-1.76290 -1.09330 -0.35765
-1.76376 -1.09191 -0.35765
-1.76375 -1.08998 -0.35770
-1.76377 -1.08807 -0.35754
-1.76379 -1.08616 -0.35737
-1.76296 -1.08374 -0.35703
-1.76298 -1.08183 -0.35687
-1.76383 -1.08044 -0.35687
-1.76213 -1.07748 -0.35658
-1.76298 -1.07609 -0.35658
-1.76382 -1.07470 -0.35659
-1.76299 -1.07229 -0.35625
-1.76215 -1.06987 -0.35591
-1.76380 -1.06897 -0.35631
-1.77311 -1.07270 -0.35779
-1.75363 -1.04586 -0.35234
-1.75615 -1.04548 -0.35268
-1.75697 -1.04410 -0.35268
-1.75867 -1.04323 -0.35264
-1.76289 -1.04385 -0.35333
-1.76116 -1.04096 -0.35282
-1.75856 -1.03755 -0.35236
-1.75856 -1.03568 -0.35198
-1.75937 -1.03429 -0.35198
-1.76019 -1.03290 -0.35198
-1.75845 -1.03002 -0.35148
-1.75838 -1.02811 -0.35152
-1.75919 -1.02673 -0.35153
-1.75911 -1.02482 -0.35158
-1.75822 -1.02245 -0.35124
-1.75817 -1.02056 -0.35107
-1.75898 -1.01918 -0.35108
-1.75807 -1.01680 -0.35074
-1.75802 -1.01492 -0.35057
-1.75626 -1.01206 -0.35007
-1.75620 -1.01018 -0.34990
-1.75700 -1.00879 -0.34990
-1.75779 -1.00741 -0.34991
-1.75776 -1.00555 -0.34953
-1.75770 -1.00367 -0.34936
-1.75934 -1.00277 -0.34953
-1.76013 -1.00139 -0.34954
-1.75921 -0.99902 -0.34920
-1.75914 -0.99715 -0.34904
-1.75992 -0.99576 -0.34904
-1.75813 -0.99292 -0.34853
-1.75806 -0.99105 -0.34837
-1.77516 -0.99884 -0.35160
-1.76134 -0.98924 -0.34871
-1.85655 -1.03694 -0.36732
-1.74279 -1.25200 -0.37265
-1.76139 -1.26326 -0.37641
-1.76636 -1.26471 -0.37750
-1.76658 -1.26277 -0.37711
-1.76597 -1.26023 -0.37677
-1.76616 -1.25827 -0.37660
-1.76552 -1.25571 -0.37649
-1.76574 -1.25377 -0.37610
-1.76750 -1.25292 -0.37650
-1.76771 -1.25098 -0.37610
-1.76709 -1.24845 -0.37577
-1.76566 -1.24535 -0.37526
-1.76425 -1.24227 -0.37452
-1.76362 -1.23975 -0.37418
-1.76379 -1.23779 -0.37401
-1.76477 -1.23640 -0.37402
-1.76332 -1.23331 -0.37351
-1.76187 -1.23023 -0.37300
-1.76368 -1.22942 -0.37295
-1.76626 -1.22916 -0.37329
-1.76480 -1.22608 -0.37279
-1.76574 -1.22466 -0.37302
-1.76751 -1.22383 -0.37319
-1.76442 -1.21963 -0.37234
-1.76376 -1.21712 -0.37200
-1.76388 -1.21515 -0.37206
-1.76321 -1.21264 -0.37172
-1.76336 -1.21069 -0.37155
-1.76431 -1.20930 -0.37156
-1.76445 -1.20735 -0.37139
-1.76540 -1.20595 -0.37139
-1.76632 -1.20454 -0.37162
-1.76649 -1.20261 -0.37123
-1.76580 -1.20011 -0.37089
-1.76515 -1.19763 -0.37033
-1.76446 -1.19513 -0.36999
-1.76374 -1.19261 -0.36988
-1.76390 -1.19069 -0.36949
-1.76729 -1.19095 -0.37000
-1.76291 -1.16190 -0.36685
-1.76050 -1.15832 -0.36639
-1.76059 -1.15639 -0.36623
-1.76233 -1.15554 -0.36640
-1.76327 -1.15417 -0.36618
-1.76250 -1.15168 -0.36606
-1.76341 -1.15029 -0.36607
-1.76431 -1.14889 -0.36607
-1.76277 -1.14591 -0.36534
-1.76120 -1.14291 -0.36483
-1.76127 -1.14099 -0.36467
-1.76300 -1.14013 -0.36484
-1.76310 -1.13823 -0.36445
-1.76314 -1.13628 -0.36451
-1.76237 -1.13382 -0.36417
-1.76247 -1.13192 -0.36378
-1.76419 -1.13106 -0.36395
-1.77009 -1.13287 -0.36476
-1.75983 -1.10103 -0.36080
-1.75735 -1.09755 -0.36012
-1.75902 -1.09667 -0.36051
-1.75989 -1.09528 -0.36052
-1.75995 -1.09339 -0.36013
-1.75997 -1.09148 -0.35996
-1.76086 -1.09011 -0.35975
-1.76172 -1.08873 -0.35975
-1.76003 -1.08576 -0.35946
-1.76005 -1.08386 -0.35929
-1.76009 -1.08197 -0.35891
-1.76011 -1.08007 -0.35874
-1.76096 -1.07868 -0.35875
-1.76181 -1.07729 -0.35875
-1.76097 -1.07487 -0.35841
-1.76098 -1.07297 -0.35824
-1.76014 -1.07056 -0.35790
-1.76179 -1.06966 -0.35830
-1.76772 -1.07135 -0.35911
-1.76329 -1.04409 -0.35651
-1.75566 -1.03771 -0.35458
-1.75478 -1.03532 -0.35424
-1.75560 -1.03393 -0.35425
-1.75641 -1.03255 -0.35425
-1.75725 -1.03118 -0.35404
-1.75807 -1.02979 -0.35404
-1.75803 -1.02791 -0.35388
-1.75714 -1.02553 -0.35354
-1.75709 -1.02365 -0.35337
-1.75620 -1.02127 -0.35303
-1.75615 -1.01939 -0.35286
-1.75525 -1.01701 -0.35253
-1.75601 -1.01561 -0.35274
-1.75681 -1.01423 -0.35275
-1.75676 -1.01235 -0.35258
-1.75585 -1.00998 -0.35224
-1.75665 -1.00859 -0.35224
-1.75655 -1.00670 -0.35229
-1.75735 -1.00531 -0.35229
-1.75728 -1.00344 -0.35212
-1.75636 -1.00107 -0.35179
-1.75629 -0.99920 -0.35162
-1.75622 -0.99733 -0.35145
-1.75618 -0.99547 -0.35107
-1.75611 -0.99360 -0.35090
-1.75346 -0.99028 -0.35022
-1.76025 -0.99228 -0.35142
-1.79022 -1.00732 -0.35725
-1.89319 -1.05937 -0.37731
-1.84586 -1.03097 -0.36772
-1.65992 -1.19446 -0.35734
-1.74490 -1.25352 -0.37519
-1.76026 -1.26246 -0.37852
-1.76446 -1.26336 -0.37921
-1.76466 -1.26139 -0.37904
-1.76482 -1.25941 -0.37910
-1.76501 -1.25744 -0.37893
-1.76520 -1.25548 -0.37877
-1.76458 -1.25294 -0.37843
-1.76557 -1.25155 -0.37843
-1.76498 -1.24904 -0.37786
-1.76435 -1.24651 -0.37752
-1.76292 -1.24342 -0.37701
-1.76229 -1.24089 -0.37667
-1.76327 -1.23950 -0.37667
-1.76344 -1.23754 -0.37650
-1.76283 -1.23504 -0.37594
-1.76300 -1.23309 -0.37577
-1.76316 -1.23113 -0.37560
-1.76251 -1.22861 -0.37526
