-2.00193 -0.66638 -0.35148
-2.00249 -0.66482 -0.35126
-2.00582 -0.66417 -0.35176
-2.00815 -0.66318 -0.35254
-2.00964 -0.66191 -0.35248
-2.01113 -0.66065 -0.35243
-2.01165 -0.65906 -0.35243
-2.01307 -0.65777 -0.35282
-2.01453 -0.65648 -0.35299
-2.01598 -0.65520 -0.35316
-2.01747 -0.65392 -0.35310
-2.01987 -0.65294 -0.35344
-2.02038 -0.65134 -0.35344
-2.02089 -0.64975 -0.35344
-2.02328 -0.64876 -0.35378
-2.02567 -0.64776 -0.35411
-2.02618 -0.64616 -0.35411
-2.02575 -0.64427 -0.35395
-2.03284 -0.64475 -0.35511
-2.03147 -0.64256 -0.35478
-2.02727 -0.63947 -0.35396
-2.03812 -0.64113 -0.35577
-2.03204 -0.63745 -0.35463
-1.92236 -0.60138 -0.33563
-1.82771 -0.82257 -0.33449
-1.83376 -0.82355 -0.33548
-1.83260 -0.82130 -0.33515
-1.83418 -0.82028 -0.33511
-1.83749 -0.82003 -0.33582
-1.83997 -0.81940 -0.33594
-1.83878 -0.81713 -0.33583
-1.83942 -0.81569 -0.33583
-1.84187 -0.81504 -0.33616
-1.84521 -0.81478 -0.33666
-1.84492 -0.81292 -0.33671
-1.84556 -0.81147 -0.33671
-1.84710 -0.81041 -0.33688
-1.84954 -0.80975 -0.33722
-1.84927 -0.80790 -0.33705
-1.85078 -0.80683 -0.33744
-1.85325 -0.80617 -0.33756
-1.85569 -0.80550 -0.33789
-1.85633 -0.80404 -0.33789
-1.85605 -0.80219 -0.33773
-1.85849 -0.80151 -0.33807
-1.86003 -0.80044 -0.33823
-1.86156 -0.79936 -0.33840
-1.86222 -0.79791 -0.33819
-1.86285 -0.79645 -0.33820
-1.86438 -0.79537 -0.33837
-1.86679 -0.79466 -0.33891
-1.86835 -0.79359 -0.33887
-1.86894 -0.79211 -0.33908
-1.86960 -0.79065 -0.33887
-1.87295 -0.79033 -0.33937
-1.89180 -0.77039 -0.34151
-1.89241 -0.76890 -0.34151
-1.89392 -0.76778 -0.34168
-1.89636 -0.76703 -0.34201
-1.89787 -0.76591 -0.34218
-1.89847 -0.76441 -0.34218
-1.90002 -0.76330 -0.34214
-1.90154 -0.76218 -0.34231
-1.90214 -0.76068 -0.34231
-1.90365 -0.75955 -0.34248
-1.90611 -0.75879 -0.34259
-1.90667 -0.75728 -0.34281
-1.90638 -0.75543 -0.34244
-1.90789 -0.75429 -0.34261
-1.90940 -0.75315 -0.34277
-1.91180 -0.75236 -0.34332
-1.91239 -0.75086 -0.34333
-1.91390 -0.74971 -0.34350
-1.92275 -0.75144 -0.34498
-1.93574 -0.72857 -0.34570
-1.93628 -0.72703 -0.34592
-1.93876 -0.72623 -0.34582
-1.94207 -0.72573 -0.34654
-1.94172 -0.72385 -0.34638
-1.94321 -0.72267 -0.34654
-1.94470 -0.72148 -0.34671
-1.94619 -0.72029 -0.34688
-1.94673 -0.71874 -0.34710
-1.94822 -0.71754 -0.34727
-1.94971 -0.71635 -0.34744
-1.95027 -0.71481 -0.34744
-1.95176 -0.71361 -0.34761
-1.95322 -0.71239 -0.34800
-1.95470 -0.71119 -0.34817
-1.95434 -0.70931 -0.34801
-1.95582 -0.70810 -0.34818
-1.95916 -0.70757 -0.34868
-1.95972 -0.70602 -0.34868
-1.95653 -0.70313 -0.34824
-1.95897 -0.70226 -0.34836
-1.96231 -0.70171 -0.34886
-1.96379 -0.70049 -0.34902
-1.96342 -0.69861 -0.34886
-1.96400 -0.69708 -0.34865
-1.96548 -0.69586 -0.34882
-1.96882 -0.69529 -0.34931
-1.97029 -0.69406 -0.34948
-1.97088 -0.69252 -0.34927
-1.97421 -0.69195 -0.34977
-1.97755 -0.69136 -0.35026
-1.97806 -0.68979 -0.35049
-1.97771 -0.68792 -0.35011
-1.97918 -0.68668 -0.35028
-1.98345 -0.68641 -0.35094
-1.98585 -0.68549 -0.35127
-1.98543 -0.68359 -0.35133
-1.98783 -0.68266 -0.35167
-1.98930 -0.68141 -0.35184
-1.98704 -0.67888 -0.35134
-1.98847 -0.67762 -0.35173
-1.99367 -0.67764 -0.35256
-1.99514 -0.67639 -0.35273
-1.99290 -0.67388 -0.35202
-1.99060 -0.67134 -0.35175
-1.99299 -0.67040 -0.35208
-1.99633 -0.66977 -0.35258
-2.00059 -0.66945 -0.35325
-2.00490 -0.66913 -0.35369
-2.00165 -0.66629 -0.35325
-2.00408 -0.66534 -0.35337
-2.00647 -0.66438 -0.35370
-2.00700 -0.66280 -0.35370
-2.00846 -0.66152 -0.35387
-2.01085 -0.66055 -0.35421
-2.01137 -0.65897 -0.35421
-2.01189 -0.65738 -0.35421
-2.01241 -0.65579 -0.35422
-2.01480 -0.65481 -0.35455
-2.01625 -0.65353 -0.35472
-2.01771 -0.65224 -0.35489
-2.02010 -0.65125 -0.35522
-2.02155 -0.64996 -0.35539
-2.02394 -0.64897 -0.35573
-2.02535 -0.64766 -0.35612
-2.02680 -0.64636 -0.35629
-2.02637 -0.64446 -0.35613
-2.02782 -0.64316 -0.35629
-2.03205 -0.64274 -0.35718
-2.02973 -0.64025 -0.35669
-2.02553 -0.63717 -0.35587
-2.03450 -0.63823 -0.35736
-2.03218 -0.63574 -0.35687
-1.83163 -0.82260 -0.33726
-1.83315 -0.82155 -0.33764
-1.83379 -0.82010 -0.33764
-1.83534 -0.81906 -0.33781
-1.83688 -0.81802 -0.33798
-1.83756 -0.81659 -0.33777
-1.84000 -0.81594 -0.33811
-1.84151 -0.81488 -0.33849
-1.84215 -0.81343 -0.33849
-1.84282 -0.81200 -0.33829
-1.84436 -0.81095 -0.33846
-1.84680 -0.81029 -0.33879
-1.84834 -0.80923 -0.33896
-1.84898 -0.80777 -0.33896
-1.84868 -0.80591 -0.33901
-1.85205 -0.80565 -0.33930
-1.85269 -0.80419 -0.33931
-1.85422 -0.80313 -0.33947
-1.85666 -0.80245 -0.33981
-1.85729 -0.80099 -0.33981
-1.85702 -0.79914 -0.33965
-1.85855 -0.79807 -0.33982
-1.86190 -0.79777 -0.34032
-1.86343 -0.79669 -0.34049
-1.86406 -0.79523 -0.34049
-1.86555 -0.79413 -0.34088
-1.86796 -0.79342 -0.34142
-1.86862 -0.79197 -0.34121
-1.86830 -0.79010 -0.34127
-1.86801 -0.78825 -0.34110
-1.87408 -0.78907 -0.34210
-1.88971 -0.76954 -0.34289
-1.88849 -0.76731 -0.34256
-1.89000 -0.76619 -0.34273
-1.89243 -0.76544 -0.34307
-1.89669 -0.76543 -0.34373
-1.89821 -0.76431 -0.34390
-1.89881 -0.76281 -0.34391
-1.89849 -0.76095 -0.34374
-1.90092 -0.76019 -0.34408
-1.90243 -0.75906 -0.34425
-1.90299 -0.75755 -0.34447
-1.90359 -0.75606 -0.34447
-1.90598 -0.75527 -0.34502
-1.90749 -0.75413 -0.34519
-1.90808 -0.75263 -0.34519
-1.91051 -0.75185 -0.34553
-1.91202 -0.75071 -0.34570
-1.91077 -0.74849 -0.34537
-1.91044 -0.74663 -0.34521
-1.91378 -0.74620 -0.34571
-1.93540 -0.72844 -0.34787
-1.93505 -0.72657 -0.34771
-1.93558 -0.72504 -0.34793
-1.93704 -0.72385 -0.34832
-1.93946 -0.72301 -0.34865
-1.94191 -0.72219 -0.34877
-1.94340 -0.72100 -0.34894
-1.94393 -0.71945 -0.34916
-1.94450 -0.71792 -0.34917
-1.94507 -0.71638 -0.34917
-1.94748 -0.71553 -0.34951
-1.94897 -0.71433 -0.34968
-1.94953 -0.71279 -0.34968
-1.95105 -0.71161 -0.34963
-1.95347 -0.71074 -0.34997
-1.95495 -0.70953 -0.35014
-1.95644 -0.70833 -0.35031
-1.95885 -0.70745 -0.35064
-1.95573 -0.70458 -0.34977
-1.95629 -0.70304 -0.34977
-1.96055 -0.70283 -0.35044
-1.96204 -0.70161 -0.35061
-1.96166 -0.69973 -0.35044
-1.96407 -0.69885 -0.35078
-1.96741 -0.69829 -0.35128
-1.96796 -0.69673 -0.35129
-1.96664 -0.69452 -0.35096
-1.96812 -0.69330 -0.35113
-1.97146 -0.69273 -0.35163
-1.97293 -0.69150 -0.35180
-1.97437 -0.69025 -0.35219
-1.97678 -0.68934 -0.35252
-1.97822 -0.68810 -0.35291
-1.97779 -0.68620 -0.35297
-1.97833 -0.68464 -0.35297
-1.98267 -0.68439 -0.35320
-1.98691 -0.68410 -0.35409
-1.98185 -0.68061 -0.35310
-2.00230 -0.66651 -0.35519
-2.00185 -0.66461 -0.35525
-2.00238 -0.66302 -0.35525
-2.00571 -0.66237 -0.35576
-2.00713 -0.66109 -0.35615
-2.00769 -0.65951 -0.35593
-2.01008 -0.65854 -0.35627
-2.01150 -0.65725 -0.35666
-2.01198 -0.65565 -0.35689
-2.01250 -0.65407 -0.35689
-2.01305 -0.65249 -0.35667
-2.01634 -0.65180 -0.35740
-2.01967 -0.65112 -0.35790
-2.01924 -0.64922 -0.35774
-2.01979 -0.64764 -0.35752
-2.02124 -0.64634 -0.35769
-2.02550 -0.64595 -0.35836
-2.02789 -0.64495 -0.35869
-2.02652 -0.64275 -0.35836
-2.02800 -0.64146 -0.35831
-2.03133 -0.64075 -0.35881
-2.02807 -0.63796 -0.35815
-2.02857 -0.63636 -0.35816
-2.03754 -0.63741 -0.35965
-2.00133 -0.62435 -0.35318
-1.82861 -0.82124 -0.33887
-1.83019 -0.82022 -0.33883
-1.83173 -0.81918 -0.33900
-1.83508 -0.81895 -0.33950
-1.83662 -0.81790 -0.33967
-1.83726 -0.81646 -0.33967
-1.83794 -0.81503 -0.33947
-1.84038 -0.81438 -0.33980
-1.84192 -0.81333 -0.33997
-1.84256 -0.81188 -0.33998
-1.84320 -0.81043 -0.33998
-1.84564 -0.80978 -0.34032
-1.84805 -0.80910 -0.34087
-1.84959 -0.80804 -0.34104
-1.84932 -0.80619 -0.34087
-1.84995 -0.80474 -0.34088
-1.85149 -0.80367 -0.34105
-1.85299 -0.80259 -0.34143
-1.85453 -0.80153 -0.34160
-1.85515 -0.80007 -0.34160
-1.85759 -0.79939 -0.34194
-1.85819 -0.79791 -0.34216
-1.85885 -0.79646 -0.34195
-1.86035 -0.79538 -0.34233
-1.86100 -0.79393 -0.34212
-1.86344 -0.79324 -0.34246
-1.86494 -0.79214 -0.34284
-1.86556 -0.79067 -0.34285
-1.86622 -0.78922 -0.34264
-1.86683 -0.78775 -0.34264
-1.86836 -0.78666 -0.34281
-1.89089 -0.76828 -0.34520
-1.88875 -0.76568 -0.34471
-1.89024 -0.76456 -0.34509
-1.89358 -0.76418 -0.34559
-1.89608 -0.76345 -0.34550
-1.89664 -0.76194 -0.34572
-1.89812 -0.76080 -0.34611
-1.90058 -0.76006 -0.34623
-1.90118 -0.75856 -0.34623
-1.90177 -0.75707 -0.34624
-1.90329 -0.75594 -0.34641
-1.90480 -0.75480 -0.34658
-1.90630 -0.75366 -0.34675
-1.90785 -0.75254 -0.34670
-1.90932 -0.75139 -0.34709
-1.90899 -0.74952 -0.34693
-1.90866 -0.74766 -0.34676
-1.91020 -0.74653 -0.34672
-1.91906 -0.74825 -0.34822
-1.91905 -0.73438 -0.34785
-1.92055 -0.73322 -0.34802
-1.92204 -0.73206 -0.34819
-1.92446 -0.73125 -0.34853
-1.92688 -0.73043 -0.34887
-1.92930 -0.72961 -0.34920
-1.93171 -0.72879 -0.34954
-1.93229 -0.72727 -0.34954
-1.93282 -0.72574 -0.34976
-1.93432 -0.72456 -0.34994
-1.93584 -0.72340 -0.34989
-1.93826 -0.72256 -0.35023
-1.94067 -0.72173 -0.35057
-1.94032 -0.71985 -0.35040
-1.94092 -0.71834 -0.35019
-1.94426 -0.71783 -0.35069
-1.94575 -0.71664 -0.35086
-1.94542 -0.71477 -0.35048
-1.94691 -0.71358 -0.35065
-1.94932 -0.71272 -0.35099
-1.95081 -0.71152 -0.35116
-1.95137 -0.70998 -0.35116
-1.95378 -0.70911 -0.35150
-1.95524 -0.70789 -0.35189
-1.95487 -0.70601 -0.35173
-1.95357 -0.70380 -0.35140
-1.95598 -0.70293 -0.35173
-1.95742 -0.70170 -0.35212
-1.96076 -0.70116 -0.35263
-1.96317 -0.70027 -0.35296
-1.96365 -0.69870 -0.35341
-1.96420 -0.69715 -0.35341
-1.96482 -0.69562 -0.35298
-1.96630 -0.69440 -0.35315
-1.96777 -0.69318 -0.35332
-1.96925 -0.69195 -0.35349
-1.97076 -0.69073 -0.35344
-1.97223 -0.68950 -0.35361
-1.97460 -0.68859 -0.35417
-1.97515 -0.68703 -0.35417
-1.97758 -0.68613 -0.35429
-1.97999 -0.68521 -0.35463
-1.99869 -0.66356 -0.35696
-1.99921 -0.66198 -0.35697
-2.00067 -0.66071 -0.35714
-2.00587 -0.66067 -0.35798
-2.00733 -0.65940 -0.35815
-2.00785 -0.65781 -0.35815
-2.00930 -0.65653 -0.35833
-2.00986 -0.65496 -0.35811
-2.01131 -0.65368 -0.35828
-2.01276 -0.65240 -0.35845
-2.01515 -0.65141 -0.35879
-2.01660 -0.65013 -0.35896
-2.01809 -0.64885 -0.35890
-2.01950 -0.64755 -0.35930
-2.02005 -0.64596 -0.35908
-2.02243 -0.64497 -0.35942
-2.02482 -0.64397 -0.35975
-2.02345 -0.64178 -0.35942
-2.02486 -0.64047 -0.35982
-2.02916 -0.64007 -0.36027
-2.02963 -0.63845 -0.36050
-2.02448 -0.63508 -0.35950
-2.03251 -0.63584 -0.36084
-2.03395 -0.63453 -0.36101
-1.95349 -0.60774 -0.34664
-1.83163 -0.82087 -0.34148
-1.83137 -0.81902 -0.34131
-1.83198 -0.81757 -0.34153
-1.83263 -0.81613 -0.34153
-1.83597 -0.81589 -0.34204
-1.83748 -0.81483 -0.34242
-1.83812 -0.81338 -0.34243
-1.83966 -0.81233 -0.34260
-1.84210 -0.81168 -0.34294
-1.84187 -0.80985 -0.34256
-1.84337 -0.80878 -0.34294
-1.84585 -0.80814 -0.34307
-1.84739 -0.80708 -0.34324
-1.84892 -0.80602 -0.34342
-1.84956 -0.80456 -0.34342
-1.85022 -0.80312 -0.34321
-1.85176 -0.80206 -0.34338
-1.85329 -0.80099 -0.34355
-1.85482 -0.79993 -0.34373
-1.85549 -0.79848 -0.34352
-1.85611 -0.79702 -0.34352
-1.85852 -0.79632 -0.34407
-1.86008 -0.79526 -0.34403
-1.86158 -0.79417 -0.34441
-1.86130 -0.79232 -0.34425
-1.86373 -0.79163 -0.34459
-1.86439 -0.79018 -0.34438
-1.86497 -0.78870 -0.34460
-1.86378 -0.78646 -0.34426
-1.86618 -0.78575 -0.34482
-1.88873 -0.76741 -0.34701
-1.88933 -0.76592 -0.34701
-1.89085 -0.76480 -0.34719
-1.89328 -0.76405 -0.34752
-1.89479 -0.76293 -0.34770
-1.89535 -0.76143 -0.34791
-1.89687 -0.76030 -0.34809
-1.89655 -0.75845 -0.34792
-1.89806 -0.75732 -0.34809
-1.90049 -0.75655 -0.34843
-1.90200 -0.75542 -0.34860
-1.90255 -0.75391 -0.34882
-1.90406 -0.75278 -0.34899
-1.90649 -0.75200 -0.34934
-1.90800 -0.75087 -0.34951
-1.90859 -0.74936 -0.34951
-1.90826 -0.74750 -0.34935
-1.91068 -0.74672 -0.34969
-1.91586 -0.74701 -0.35053
-1.91001 -0.74300 -0.34936
-1.90784 -0.74042 -0.34886
-1.91118 -0.73999 -0.34936
-1.91363 -0.73921 -0.34949
-1.91421 -0.73771 -0.34949
-1.91571 -0.73655 -0.34966
-1.91721 -0.73540 -0.34984
-1.91782 -0.73391 -0.34962
-1.91932 -0.73275 -0.34980
-1.92174 -0.73194 -0.35013
-1.92323 -0.73078 -0.35031
-1.92473 -0.72961 -0.35048
-1.92714 -0.72880 -0.35082
-1.92956 -0.72798 -0.35116
-1.93013 -0.72646 -0.35116
-1.93070 -0.72494 -0.35116
-1.93216 -0.72375 -0.35155
-1.93553 -0.72328 -0.35184
-1.93603 -0.72173 -0.35228
-1.93752 -0.72055 -0.35245
-1.93716 -0.71868 -0.35229
-1.93773 -0.71715 -0.35229
-1.94107 -0.71665 -0.35280
-1.94441 -0.71614 -0.35331
-1.94405 -0.71427 -0.35314
-1.94553 -0.71307 -0.35331
-1.94610 -0.71154 -0.35332
-1.94851 -0.71068 -0.35366
-1.94907 -0.70914 -0.35366
-1.94963 -0.70760 -0.35367
-1.95730 -0.70689 -0.35441
-1.95411 -0.70400 -0.35396
-1.95466 -0.70246 -0.35397
-1.95707 -0.70158 -0.35431
-1.96041 -0.70103 -0.35481
-1.96189 -0.69981 -0.35499
-1.96244 -0.69827 -0.35499
-1.96299 -0.69672 -0.35499
-1.96443 -0.69549 -0.35538
-1.96591 -0.69426 -0.35556
-1.96835 -0.69338 -0.35568
-1.96979 -0.69214 -0.35607
-1.96941 -0.69026 -0.35590
-1.97178 -0.68934 -0.35646
-1.97418 -0.68844 -0.35680
-1.97379 -0.68656 -0.35664
-1.97340 -0.68468 -0.35647
-1.97580 -0.68376 -0.35681
-1.98752 -0.68606 -0.35884
-2.00118 -0.66438 -0.35946
-1.99796 -0.66156 -0.35879
-1.99941 -0.66029 -0.35896
-2.00274 -0.65964 -0.35947
-2.00513 -0.65868 -0.35981
-2.00565 -0.65709 -0.35981
-2.00804 -0.65612 -0.36016
-2.00852 -0.65453 -0.36038
-2.00994 -0.65324 -0.36078
-2.01233 -0.65226 -0.36112
-2.01382 -0.65098 -0.36107
-2.01621 -0.65000 -0.36140
-2.01762 -0.64870 -0.36180
-2.01813 -0.64711 -0.36180
-2.01864 -0.64551 -0.36181
-2.02009 -0.64422 -0.36198
-2.02153 -0.64292 -0.36215
-2.02208 -0.64134 -0.36193
-2.02254 -0.63974 -0.36216
-2.02590 -0.63904 -0.36244
-2.02923 -0.63833 -0.36295
-2.02503 -0.63525 -0.36212
-2.02835 -0.63454 -0.36262
-2.03638 -0.63528 -0.36397
-1.99264 -0.61991 -0.35607
-1.82828 -0.81764 -0.34334
-1.82892 -0.81620 -0.34334
-1.82956 -0.81476 -0.34334
-1.83290 -0.81452 -0.34385
-1.83445 -0.81348 -0.34403
-1.83689 -0.81284 -0.34437
-1.83843 -0.81179 -0.34454
-1.83903 -0.81033 -0.34475
-1.83967 -0.80888 -0.34476
-1.84120 -0.80783 -0.34493
-1.84361 -0.80716 -0.34548
-1.84515 -0.80610 -0.34566
-1.84668 -0.80504 -0.34583
-1.84732 -0.80359 -0.34583
-1.84885 -0.80253 -0.34601
-1.84948 -0.80107 -0.34601
-1.85102 -0.80001 -0.34618
-1.85164 -0.79855 -0.34619
-1.85230 -0.79711 -0.34598
-1.85383 -0.79604 -0.34615
-1.85537 -0.79497 -0.34632
-1.85599 -0.79351 -0.34633
-1.85846 -0.79284 -0.34646
-1.85999 -0.79177 -0.34663
-1.86148 -0.79067 -0.34702
-1.86210 -0.78921 -0.34702
-1.86272 -0.78774 -0.34702
-1.86428 -0.78668 -0.34698
-1.86487 -0.78519 -0.34720
-1.86730 -0.78449 -0.34754
-1.87728 -0.76792 -0.34852
-1.87792 -0.76646 -0.34831
-1.88031 -0.76571 -0.34886
-1.88643 -0.76647 -0.34967
-1.88612 -0.76462 -0.34950
-1.88672 -0.76313 -0.34951
-1.89006 -0.76275 -0.35002
-1.89343 -0.76238 -0.35032
-1.89403 -0.76090 -0.35032
-1.89463 -0.75941 -0.35032
-1.89614 -0.75828 -0.35050
-1.89674 -0.75679 -0.35050
-1.89550 -0.75457 -0.35017
-1.89704 -0.75345 -0.35012
-1.90038 -0.75305 -0.35063
-1.90189 -0.75192 -0.35081
-1.90340 -0.75078 -0.35098
-1.90674 -0.75037 -0.35149
-1.90729 -0.74886 -0.35171
-1.90784 -0.74734 -0.35193
-1.90935 -0.74620 -0.35210
-1.90993 -0.74470 -0.35211
-1.90960 -0.74284 -0.35194
-1.91110 -0.74169 -0.35211
-1.91257 -0.74053 -0.35250
-1.91318 -0.73904 -0.35229
-1.91376 -0.73753 -0.35229
-1.91615 -0.73672 -0.35285
-1.91768 -0.73558 -0.35281
-1.91826 -0.73407 -0.35281
-1.91791 -0.73221 -0.35265
-1.92033 -0.73140 -0.35299
-1.92275 -0.73059 -0.35333
-1.92428 -0.72944 -0.35329
-1.92574 -0.72827 -0.35368
-1.92908 -0.72779 -0.35419
-1.92968 -0.72629 -0.35397
-1.92933 -0.72442 -0.35381
-1.92986 -0.72289 -0.35403
-1.93320 -0.72241 -0.35454
-1.94300 -0.72433 -0.35624
-1.95451 -0.70414 -0.35740
-1.95324 -0.70195 -0.35685
-1.95472 -0.70074 -0.35702
-1.95620 -0.69953 -0.35720
-1.95865 -0.69866 -0.35732
-1.96013 -0.69744 -0.35750
-1.96160 -0.69622 -0.35767
-1.96215 -0.69468 -0.35767
-1.96270 -0.69313 -0.35768
-1.96603 -0.69256 -0.35819
-1.96661 -0.69102 -0.35797
-1.96809 -0.68980 -0.35814
-1.96863 -0.68824 -0.35815
-1.97383 -0.68831 -0.35900
-1.97437 -0.68676 -0.35900
-1.97491 -0.68520 -0.35901
-1.97545 -0.68364 -0.35901
-1.97692 -0.68240 -0.35918
-1.98580 -0.68372 -0.36093
-2.00030 -0.66234 -0.36217
-1.99797 -0.65982 -0.36189
-1.99849 -0.65824 -0.36189
-1.99998 -0.65698 -0.36185
-2.00425 -0.65663 -0.36253
-2.00570 -0.65536 -0.36270
-2.00809 -0.65439 -0.36304
-2.00861 -0.65280 -0.36305
-2.00912 -0.65122 -0.36305
-2.01057 -0.64993 -0.36322
-2.01292 -0.64894 -0.36379
-2.01531 -0.64795 -0.36413
-2.01676 -0.64667 -0.36430
-2.01817 -0.64536 -0.36470
-2.01680 -0.64317 -0.36436
-2.01824 -0.64188 -0.36454
-2.02157 -0.64118 -0.36505
-2.02395 -0.64018 -0.36539
-2.02257 -0.63799 -0.36506
-2.02402 -0.63669 -0.36523
-2.02734 -0.63598 -0.36574
-2.02408 -0.63320 -0.36507
-2.02552 -0.63190 -0.36524
-2.03448 -0.63293 -0.36677
-1.99357 -0.61848 -0.35931
-1.82454 -0.81769 -0.34535
-1.82702 -0.81707 -0.34548
-1.82769 -0.81565 -0.34527
-1.83010 -0.81500 -0.34583
-1.83251 -0.81435 -0.34638
-1.83405 -0.81330 -0.34656
-1.83472 -0.81188 -0.34635
-1.83532 -0.81042 -0.34656
-1.83596 -0.80897 -0.34657
-1.83753 -0.80794 -0.34653
-1.83903 -0.80688 -0.34691
-1.84057 -0.80583 -0.34709
-1.84207 -0.80476 -0.34747
-1.84361 -0.80370 -0.34765
-1.84514 -0.80264 -0.34782
-1.84664 -0.80157 -0.34820
-1.84911 -0.80092 -0.34834
-1.84884 -0.79907 -0.34817
-1.84943 -0.79760 -0.34839
-1.85096 -0.79653 -0.34856
-1.85343 -0.79587 -0.34869
-1.85496 -0.79480 -0.34887
-1.85559 -0.79334 -0.34887
-1.85712 -0.79227 -0.34904
-1.85959 -0.79159 -0.34918
-1.86021 -0.79013 -0.34918
-1.86083 -0.78867 -0.34918
-1.86145 -0.78720 -0.34919
-1.86301 -0.78614 -0.34915
-1.86362 -0.78467 -0.34915
-1.86606 -0.78397 -0.34950
-1.87027 -0.78401 -0.35039
-1.86547 -0.78027 -0.34916
-1.86244 -0.77728 -0.34849
-1.86393 -0.77618 -0.34887
-1.86727 -0.77585 -0.34939
-1.86970 -0.77514 -0.34973
-1.87122 -0.77404 -0.34991
-1.87273 -0.77295 -0.35008
-1.87334 -0.77147 -0.35008
-1.87391 -0.76999 -0.35030
-1.87725 -0.76963 -0.35081
-1.87694 -0.76778 -0.35065
-1.87758 -0.76632 -0.35044
-1.88089 -0.76594 -0.35117
-1.88240 -0.76483 -0.35134
-1.88209 -0.76298 -0.35117
-1.88543 -0.76261 -0.35169
-1.88968 -0.76260 -0.35237
-1.89119 -0.76148 -0.35255
-1.89088 -0.75963 -0.35238
-1.89242 -0.75852 -0.35234
-1.89573 -0.75812 -0.35307
-1.89632 -0.75662 -0.35307
-1.89604 -0.75478 -0.35269
-1.89663 -0.75329 -0.35270
-1.89722 -0.75180 -0.35270
-1.89781 -0.75031 -0.35270
-1.90115 -0.74990 -0.35322
-1.90449 -0.74948 -0.35373
-1.90504 -0.74797 -0.35395
-1.90475 -0.74613 -0.35357
-1.90805 -0.74569 -0.35430
-1.90955 -0.74455 -0.35447
-1.90646 -0.74162 -0.35380
-1.90705 -0.74012 -0.35380
-1.90947 -0.73933 -0.35414
-1.91277 -0.73888 -0.35487
-1.91427 -0.73773 -0.35505
-1.91577 -0.73657 -0.35522
-1.91727 -0.73542 -0.35540
-1.91784 -0.73391 -0.35540
-1.91934 -0.73276 -0.35557
-1.92176 -0.73195 -0.35592
-1.92325 -0.73079 -0.35609
-1.92382 -0.72927 -0.35610
-1.92532 -0.72811 -0.35627
-1.92681 -0.72694 -0.35645
-1.92742 -0.72544 -0.35623
-1.92799 -0.72392 -0.35624
-1.92856 -0.72240 -0.35624
-1.93100 -0.72159 -0.35637
-1.95508 -0.70435 -0.35976
-1.95282 -0.70179 -0.35947
-1.95341 -0.70027 -0.35925
-1.95581 -0.69939 -0.35960
-1.95729 -0.69817 -0.35977
-1.95877 -0.69696 -0.35995
-1.96118 -0.69607 -0.36029
-1.96172 -0.69453 -0.36029
-1.96138 -0.69266 -0.35991
-1.96285 -0.69144 -0.36008
-1.96340 -0.68989 -0.36009
-1.96673 -0.68932 -0.36060
-1.96913 -0.68842 -0.36095
-1.96967 -0.68687 -0.36095
-1.97115 -0.68564 -0.36112
-1.97355 -0.68473 -0.36147
-1.97502 -0.68349 -0.36164
-1.97369 -0.68129 -0.36131
-1.97423 -0.67973 -0.36131
-1.97942 -0.67977 -0.36217
-2.00357 -0.66342 -0.36573
-1.99660 -0.65937 -0.36437
-1.99529 -0.65719 -0.36381
-1.99768 -0.65623 -0.36416
-2.00194 -0.65588 -0.36484
-2.00343 -0.65461 -0.36480
-2.00207 -0.65242 -0.36446
-2.00446 -0.65145 -0.36480
-2.00684 -0.65048 -0.36515
-2.00829 -0.64920 -0.36532
-2.00974 -0.64792 -0.36550
-2.01307 -0.64724 -0.36601
-2.01451 -0.64595 -0.36619
-2.01596 -0.64466 -0.36636
-2.01647 -0.64307 -0.36637
-2.01697 -0.64148 -0.36637
-2.02026 -0.64077 -0.36711
-2.02170 -0.63947 -0.36728
-2.02127 -0.63758 -0.36712
-2.02271 -0.63628 -0.36729
-2.02603 -0.63557 -0.36781
-2.02367 -0.63307 -0.36752
-2.02417 -0.63148 -0.36752
-2.03314 -0.63251 -0.36906
-2.00540 -0.62215 -0.36395
-1.82132 -0.81453 -0.34634
-1.82646 -0.81510 -0.34720
-1.82800 -0.81407 -0.34738
-1.83047 -0.81344 -0.34751
-1.83291 -0.81280 -0.34786
-1.83175 -0.81056 -0.34752
-1.83239 -0.80912 -0.34752
-1.83573 -0.80887 -0.34804
-1.83726 -0.80782 -0.34821
-1.83786 -0.80636 -0.34843
-1.84030 -0.80571 -0.34878
-1.84097 -0.80427 -0.34857
-1.84250 -0.80322 -0.34874
-1.84491 -0.80254 -0.34930
-1.84554 -0.80109 -0.34930
-1.84704 -0.80002 -0.34969
-1.84766 -0.79856 -0.34969
-1.84829 -0.79711 -0.34970
-1.84982 -0.79604 -0.34987
-1.85135 -0.79498 -0.35004
-1.85288 -0.79391 -0.35022
-1.85441 -0.79284 -0.35040
-1.85503 -0.79138 -0.35040
-1.85475 -0.78953 -0.35023
-1.85627 -0.78846 -0.35041
-1.85874 -0.78778 -0.35054
-1.86118 -0.78709 -0.35089
-1.86089 -0.78524 -0.35072
-1.86059 -0.78339 -0.35055
-1.86393 -0.78307 -0.35107
-1.86727 -0.78275 -0.35158
-1.86334 -0.77938 -0.35073
-1.86123 -0.77678 -0.35022
-1.86366 -0.77607 -0.35057
-1.86976 -0.77689 -0.35139
-1.86942 -0.77502 -0.35143
-1.87094 -0.77393 -0.35161
-1.87334 -0.77319 -0.35217
-1.87395 -0.77172 -0.35217
-1.87546 -0.77062 -0.35234
-1.87789 -0.76989 -0.35269
-1.87850 -0.76842 -0.35269
-1.87727 -0.76619 -0.35235
-1.87875 -0.76507 -0.35274
-1.88209 -0.76471 -0.35326
-1.88361 -0.76360 -0.35343
-1.88424 -0.76213 -0.35323
-1.88754 -0.76174 -0.35396
-1.88997 -0.76099 -0.35430
-1.88965 -0.75914 -0.35413
-1.88937 -0.75730 -0.35375
-1.89179 -0.75654 -0.35410
-1.89147 -0.75469 -0.35393
-1.89206 -0.75320 -0.35394
-1.89540 -0.75280 -0.35445
-1.89694 -0.75169 -0.35441
-1.89570 -0.74947 -0.35407
-1.89721 -0.74834 -0.35425
-1.90329 -0.74901 -0.35528
-1.90205 -0.74680 -0.35494
-1.90080 -0.74458 -0.35460
-1.91574 -0.74696 -0.35718
-1.90806 -0.74224 -0.35564
-1.90772 -0.74038 -0.35547
-1.90922 -0.73923 -0.35565
-1.91256 -0.73880 -0.35617
-1.91494 -0.73799 -0.35673
-1.91460 -0.73613 -0.35656
-1.91610 -0.73498 -0.35673
-1.91756 -0.73381 -0.35713
-1.91814 -0.73230 -0.35713
-1.91882 -0.73083 -0.35648
-1.92021 -0.72963 -0.35731
-1.92262 -0.72882 -0.35765
-1.92412 -0.72765 -0.35783
-1.92472 -0.72615 -0.35762
-1.92621 -0.72498 -0.35779
-1.92678 -0.72347 -0.35779
-1.92827 -0.72230 -0.35797
-1.92884 -0.72078 -0.35797
-1.93033 -0.71961 -0.35815
-1.95164 -0.70137 -0.36082
-1.95312 -0.70016 -0.36100
-1.95367 -0.69862 -0.36100
-1.95422 -0.69708 -0.36100
-1.95570 -0.69587 -0.36118
-1.95811 -0.69498 -0.36152
-1.95955 -0.69376 -0.36192
-1.96013 -0.69222 -0.36170
-1.96253 -0.69133 -0.36205
-1.96493 -0.69043 -0.36240
-1.96641 -0.68921 -0.36257
-1.96788 -0.68798 -0.36275
-1.96939 -0.68677 -0.36270
-1.96993 -0.68521 -0.36271
-1.97143 -0.68399 -0.36266
-1.97290 -0.68276 -0.36284
-1.97344 -0.68120 -0.36284
-1.97584 -0.68029 -0.36319
-1.98383 -0.68129 -0.36456
-2.00009 -0.66052 -0.36660
-1.99687 -0.65771 -0.36592
-1.99645 -0.65582 -0.36575
-2.00071 -0.65548 -0.36644
-2.00220 -0.65421 -0.36640
-2.00365 -0.65294 -0.36657
-2.00510 -0.65166 -0.36675
-2.00655 -0.65038 -0.36692
-2.00706 -0.64880 -0.36693
-2.00945 -0.64782 -0.36727
-2.01184 -0.64684 -0.36762
-2.01328 -0.64555 -0.36779
-2.01469 -0.64425 -0.36819
-2.01520 -0.64266 -0.36819
-2.01477 -0.64077 -0.36803
-2.01715 -0.63978 -0.36837
-2.02047 -0.63908 -0.36889
-2.02097 -0.63748 -0.36890
-2.01866 -0.63500 -0.36839
-2.02194 -0.63428 -0.36913
-2.02714 -0.63416 -0.36999
-2.02388 -0.63138 -0.36931
-2.02343 -0.62950 -0.36914
-2.03334 -0.63082 -0.37086
-2.00748 -0.62106 -0.36606
-1.82192 -0.81480 -0.34840
-1.82709 -0.81539 -0.34906
-1.82773 -0.81395 -0.34906
-1.82927 -0.81291 -0.34923
-1.83081 -0.81187 -0.34941
-1.83145 -0.81043 -0.34941
-1.83389 -0.80978 -0.34976
-1.83452 -0.80834 -0.34976
-1.83603 -0.80728 -0.35015
-1.83756 -0.80623 -0.35033
-1.83733 -0.80441 -0.34995
-1.83886 -0.80335 -0.35012
-1.84126 -0.80268 -0.35068
-1.84280 -0.80162 -0.35086
-1.84523 -0.80096 -0.35120
-1.84586 -0.79951 -0.35121
-1.84646 -0.79804 -0.35142
-1.84712 -0.79660 -0.35121
-1.84861 -0.79552 -0.35160
-1.85014 -0.79446 -0.35178
-1.85167 -0.79339 -0.35195
-1.85229 -0.79193 -0.35196
-1.85292 -0.79048 -0.35196
-1.85444 -0.78940 -0.35214
-1.85688 -0.78872 -0.35248
-1.85934 -0.78804 -0.35262
-1.86087 -0.78696 -0.35280
-1.86058 -0.78511 -0.35263
-1.86210 -0.78403 -0.35280
-1.86366 -0.78296 -0.35277
-1.86337 -0.78111 -0.35260
-1.86398 -0.77965 -0.35260
-1.86550 -0.77856 -0.35278
-1.86793 -0.77785 -0.35312
-1.86854 -0.77638 -0.35313
-1.86915 -0.77491 -0.35313
-1.87067 -0.77382 -0.35331
-1.87219 -0.77272 -0.35348
-1.87371 -0.77162 -0.35366
-1.87522 -0.77052 -0.35383
-1.87583 -0.76905 -0.35384
-1.87731 -0.76793 -0.35423
-1.87879 -0.76681 -0.35462
-1.88030 -0.76570 -0.35479
-1.88273 -0.76497 -0.35514
-1.88333 -0.76349 -0.35514
-1.88389 -0.76199 -0.35536
-1.88822 -0.76201 -0.35562
-1.89243 -0.76198 -0.35653
-1.88178 -0.75426 -0.35409
-1.90866 -0.74247 -0.35775
-1.90653 -0.73991 -0.35702
-1.90799 -0.73876 -0.35741
-1.91041 -0.73797 -0.35776
-1.91187 -0.73680 -0.35815
-1.91245 -0.73530 -0.35815
-1.91395 -0.73415 -0.35833
-1.91636 -0.73335 -0.35868
-1.91786 -0.73219 -0.35885
-1.91935 -0.73103 -0.35903
-1.91989 -0.72951 -0.35925
-1.92142 -0.72836 -0.35921
-1.92291 -0.72720 -0.35939
-1.92437 -0.72602 -0.35978
-1.92590 -0.72486 -0.35974
-1.92647 -0.72335 -0.35974
-1.92703 -0.72183 -0.35974
-1.92852 -0.72066 -0.35992
-1.93278 -0.72052 -0.36061
-1.95228 -0.70160 -0.36273
-1.95191 -0.69973 -0.36257
-1.95246 -0.69819 -0.36257
-1.95301 -0.69665 -0.36257
-1.95634 -0.69610 -0.36310
-1.95689 -0.69455 -0.36310
-1.95929 -0.69367 -0.36345
-1.95984 -0.69212 -0.36345
-1.96224 -0.69123 -0.36380
-1.96279 -0.68968 -0.36380
-1.96426 -0.68846 -0.36398
-1.96670 -0.68757 -0.36411
-1.96817 -0.68634 -0.36428
-1.96964 -0.68511 -0.36446
-1.96925 -0.68324 -0.36429
-1.96979 -0.68168 -0.36429
-1.97218 -0.68077 -0.36464
-1.97365 -0.67953 -0.36482
-1.97419 -0.67798 -0.36482
-1.97472 -0.67642 -0.36483
-1.99508 -0.65886 -0.36773
-1.99467 -0.65698 -0.36756
-1.99612 -0.65572 -0.36774
-1.99948 -0.65507 -0.36804
-1.99996 -0.65348 -0.36826
-2.00145 -0.65222 -0.36822
-2.00290 -0.65095 -0.36839
-2.00438 -0.64968 -0.36835
-2.00486 -0.64809 -0.36857
-2.00634 -0.64682 -0.36853
-2.00873 -0.64584 -0.36888
-2.01017 -0.64455 -0.36905
-2.01256 -0.64357 -0.36940
-2.01400 -0.64228 -0.36958
-2.01263 -0.64009 -0.36924
-2.01313 -0.63851 -0.36924
-2.01645 -0.63781 -0.36976
-2.01883 -0.63681 -0.37011
-2.01840 -0.63492 -0.36994
-2.02168 -0.63420 -0.37068
-2.02594 -0.63378 -0.37138
-2.02358 -0.63129 -0.37109
-2.02408 -0.62970 -0.37109
-2.03304 -0.63072 -0.37265
-1.99872 -0.61835 -0.36627
-1.82593 -0.81486 -0.35056
-1.82653 -0.81341 -0.35078
-1.82630 -0.81159 -0.35040
-1.82964 -0.81135 -0.35092
-1.83028 -0.80991 -0.35092
-1.83182 -0.80887 -0.35110
-1.83425 -0.80822 -0.35145
-1.83576 -0.80716 -0.35184
-1.83729 -0.80611 -0.35201
-1.83883 -0.80506 -0.35219
-1.83942 -0.80360 -0.35240
-1.84096 -0.80255 -0.35258
-1.84339 -0.80188 -0.35293
-1.84493 -0.80083 -0.35311
-1.84375 -0.79859 -0.35276
-1.84434 -0.79713 -0.35298
-1.84681 -0.79647 -0.35312
-1.84740 -0.79500 -0.35333
-1.84803 -0.79355 -0.35333
-1.84959 -0.79250 -0.35330
-1.85202 -0.79182 -0.35365
-1.85174 -0.78997 -0.35348
-1.85239 -0.78853 -0.35327
-1.85392 -0.78746 -0.35345
-1.85635 -0.78677 -0.35380
-1.85697 -0.78531 -0.35380
-1.85668 -0.78346 -0.35363
-1.86001 -0.78315 -0.35415
-1.86604 -0.78396 -0.35541
-1.86121 -0.78021 -0.35437
-1.86364 -0.77950 -0.35472
-1.86516 -0.77842 -0.35490
-1.86577 -0.77695 -0.35490
-1.86823 -0.77625 -0.35504
-1.87063 -0.77552 -0.35560
-1.87124 -0.77405 -0.35561
-1.87093 -0.77220 -0.35544
-1.87245 -0.77111 -0.35561
-1.87393 -0.76999 -0.35600
-1.87363 -0.76814 -0.35583
-1.87423 -0.76667 -0.35584
-1.87757 -0.76631 -0.35636
-1.87999 -0.76558 -0.35671
-1.88059 -0.76410 -0.35671
-1.88119 -0.76262 -0.35672
-1.88179 -0.76114 -0.35672
-1.88239 -0.75966 -0.35672
-1.88573 -0.75928 -0.35725
-1.90651 -0.74164 -0.35934
-1.90526 -0.73942 -0.35900
-1.90767 -0.73864 -0.35935
-1.91006 -0.73783 -0.35991
-1.91155 -0.73668 -0.36009
-1.91213 -0.73518 -0.36009
-1.91271 -0.73367 -0.36009
-1.91420 -0.73252 -0.36027
-1.91478 -0.73101 -0.36027
-1.91719 -0.73021 -0.36062
-1.91869 -0.72905 -0.36080
-1.92018 -0.72789 -0.36098
-1.92079 -0.72639 -0.36077
-1.92317 -0.72556 -0.36133
-1.92469 -0.72441 -0.36129
-1.92526 -0.72290 -0.36130
-1.92491 -0.72104 -0.36113
-1.92639 -0.71987 -0.36130
-1.93157 -0.72007 -0.36217
-1.95062 -0.69927 -0.36457
-1.95025 -0.69740 -0.36440
-1.95265 -0.69652 -0.36475
-1.95509 -0.69565 -0.36488
-1.95657 -0.69444 -0.36506
-1.95711 -0.69289 -0.36506
-1.95952 -0.69200 -0.36541
-1.96192 -0.69111 -0.36577
-1.96153 -0.68924 -0.36560
-1.96304 -0.68803 -0.36555
-1.96358 -0.68648 -0.36556
-1.96691 -0.68590 -0.36608
-1.96745 -0.68435 -0.36608
-1.96892 -0.68312 -0.36626
-1.97043 -0.68190 -0.36622
-1.97096 -0.68035 -0.36622
-1.97053 -0.67846 -0.36627
-1.97293 -0.67754 -0.36662
-1.99198 -0.65784 -0.36898
-1.99157 -0.65596 -0.36881
-1.99399 -0.65502 -0.36894
-1.99821 -0.65466 -0.36985
-2.00154 -0.65400 -0.37038
-2.00209 -0.65243 -0.37016
-2.00163 -0.65053 -0.37021
-2.00218 -0.64897 -0.37000
-2.00359 -0.64768 -0.37039
-2.00597 -0.64670 -0.37074
-2.00929 -0.64602 -0.37127
-2.00980 -0.64444 -0.37127
-2.01031 -0.64285 -0.37127
-2.01175 -0.64156 -0.37145
-2.01316 -0.64026 -0.37185
-2.01276 -0.63839 -0.37146
-2.01420 -0.63710 -0.37164
-2.01655 -0.63609 -0.37221
-2.01705 -0.63450 -0.37221
-2.01755 -0.63291 -0.37222
-2.02271 -0.63277 -0.37331
-2.01944 -0.63000 -0.37262
-2.02182 -0.62899 -0.37297
-2.03176 -0.63033 -0.37449
-1.99086 -0.61592 -0.36686
-1.82465 -0.81430 -0.35270
-1.82529 -0.81286 -0.35270
-1.82503 -0.81102 -0.35253
-1.82654 -0.80997 -0.35292
-1.82987 -0.80973 -0.35345
-1.83141 -0.80869 -0.35362
-1.83114 -0.80685 -0.35345
-1.83268 -0.80581 -0.35363
-1.83421 -0.80476 -0.35381
-1.83575 -0.80371 -0.35398
-1.83728 -0.80266 -0.35416
-1.83791 -0.80122 -0.35417
-1.83854 -0.79977 -0.35417
-1.84097 -0.79911 -0.35452
-1.84525 -0.79924 -0.35501
-1.84316 -0.79662 -0.35449
-1.83836 -0.79283 -0.35345
-1.83808 -0.79099 -0.35328
-1.84232 -0.79110 -0.35398
-1.84656 -0.79120 -0.35468
-1.84903 -0.79054 -0.35482
-1.84693 -0.78792 -0.35430
-1.84937 -0.78724 -0.35465
-1.86093 -0.78009 -0.35607
-1.86151 -0.77861 -0.35628
-1.86394 -0.77791 -0.35664
-1.86542 -0.77681 -0.35703
-1.86600 -0.77532 -0.35724
-1.86752 -0.77423 -0.35742
-1.86907 -0.77316 -0.35738
-1.86968 -0.77168 -0.35739
-1.87028 -0.77021 -0.35739
-1.87180 -0.76912 -0.35757
-1.87335 -0.76803 -0.35753
-1.87577 -0.76730 -0.35789
-1.87634 -0.76581 -0.35810
-1.87789 -0.76472 -0.35807
-1.87940 -0.76362 -0.35824
-1.88000 -0.76214 -0.35825
-1.88060 -0.76066 -0.35825
-1.88211 -0.75955 -0.35843
-1.88636 -0.75954 -0.35913
-1.90854 -0.74070 -0.36205
-1.90453 -0.73742 -0.36118
-1.90511 -0.73592 -0.36119
-1.90756 -0.73514 -0.36133
-1.91089 -0.73470 -0.36185
-1.91147 -0.73320 -0.36186
-1.91297 -0.73205 -0.36203
-1.91446 -0.73089 -0.36221
-1.91507 -0.72940 -0.36200
-1.91653 -0.72823 -0.36239
-1.91806 -0.72708 -0.36235
-1.91955 -0.72592 -0.36253
-1.92104 -0.72476 -0.36271
-1.92256 -0.72361 -0.36267
-1.92494 -0.72278 -0.36324
-1.92647 -0.72162 -0.36320
-1.92607 -0.71975 -0.36325
-1.92572 -0.71789 -0.36308
-1.92812 -0.71706 -0.36343
-1.94755 -0.69817 -0.36579
-1.94721 -0.69631 -0.36540
-1.94961 -0.69544 -0.36575
-1.95109 -0.69423 -0.36593
-1.95442 -0.69368 -0.36646
-1.95682 -0.69279 -0.36681
-1.95737 -0.69125 -0.36681
-1.95791 -0.68970 -0.36682
-1.96028 -0.68880 -0.36739
-1.96268 -0.68790 -0.36774
-1.96322 -0.68635 -0.36774
-1.96376 -0.68480 -0.36775
-1.96616 -0.68390 -0.36810
-1.96759 -0.68266 -0.36849
-1.96813 -0.68111 -0.36850
-1.96866 -0.67955 -0.36850
-1.97013 -0.67832 -0.36868
-1.97066 -0.67677 -0.36868
-1.97306 -0.67585 -0.36904
-1.98011 -0.67652 -0.37026
-1.99408 -0.65679 -0.37109
-1.99179 -0.65429 -0.37057
-1.99324 -0.65303 -0.37075
-1.99656 -0.65237 -0.37128
-1.99801 -0.65110 -0.37145
-1.99849 -0.64951 -0.37168
-1.99993 -0.64824 -0.37186
-2.00138 -0.64696 -0.37204
-2.00283 -0.64569 -0.37221
-2.00517 -0.64470 -0.37279
-2.00662 -0.64341 -0.37296
-2.00806 -0.64213 -0.37314
-2.01041 -0.64113 -0.37372
-2.01185 -0.63984 -0.37389
-2.01239 -0.63827 -0.37368
-2.01289 -0.63668 -0.37368
-2.01527 -0.63569 -0.37403
-2.01577 -0.63409 -0.37404
-2.01443 -0.63193 -0.37347
-2.01775 -0.63122 -0.37400
-2.02385 -0.63138 -0.37527
-2.02246 -0.62919 -0.37492
-2.02014 -0.62672 -0.37440
-2.02913 -0.62776 -0.37575
-2.01363 -0.62122 -0.37280
-1.82506 -0.81276 -0.35417
-1.82480 -0.81092 -0.35400
-1.82453 -0.80909 -0.35383
-1.82697 -0.80845 -0.35418
-1.82944 -0.80782 -0.35433
-1.83094 -0.80676 -0.35471
-1.83157 -0.80532 -0.35472
-1.83404 -0.80469 -0.35486
-1.83558 -0.80364 -0.35504
-1.83617 -0.80218 -0.35525
-1.83684 -0.80075 -0.35504
-1.84017 -0.80048 -0.35557
-1.84532 -0.80100 -0.35645
-1.83754 -0.79419 -0.35471
-1.86516 -0.78187 -0.35885
-1.86033 -0.77812 -0.35780
-1.86094 -0.77665 -0.35781
-1.86158 -0.77521 -0.35760
-1.86492 -0.77487 -0.35813
-1.86643 -0.77378 -0.35831
-1.86708 -0.77233 -0.35810
-1.86950 -0.77161 -0.35845
-1.87102 -0.77052 -0.35863
-1.87254 -0.76942 -0.35881
-1.87405 -0.76832 -0.35898
-1.87560 -0.76723 -0.35895
-1.87617 -0.76574 -0.35917
-1.87677 -0.76427 -0.35917
-1.87737 -0.76279 -0.35917
-1.87976 -0.76204 -0.35974
-1.88039 -0.76057 -0.35953
-1.88095 -0.75908 -0.35975
-1.88246 -0.75797 -0.35992
-1.89037 -0.75942 -0.36133
-1.90102 -0.73778 -0.36173
-1.90252 -0.73664 -0.36191
-1.90493 -0.73585 -0.36226
-1.90735 -0.73506 -0.36262
-1.90884 -0.73391 -0.36279
-1.91034 -0.73276 -0.36297
-1.91180 -0.73160 -0.36336
-1.91333 -0.73046 -0.36333
-1.91386 -0.72894 -0.36355
-1.91536 -0.72779 -0.36373
-1.91777 -0.72698 -0.36408
-1.91834 -0.72547 -0.36408
-1.92075 -0.72465 -0.36444
-1.92224 -0.72349 -0.36461
-1.92277 -0.72196 -0.36483
-1.92426 -0.72080 -0.36501
-1.92483 -0.71928 -0.36502
-1.92539 -0.71777 -0.36502
-1.92596 -0.71625 -0.36502
-1.93114 -0.71645 -0.36590
-1.94603 -0.69589 -0.36675
-1.94658 -0.69435 -0.36675
-1.94987 -0.69379 -0.36750
-1.95320 -0.69324 -0.36802
-1.95468 -0.69203 -0.36820
-1.95429 -0.69016 -0.36803
-1.95483 -0.68862 -0.36804
-1.95627 -0.68739 -0.36843
-1.95867 -0.68650 -0.36879
-1.95921 -0.68495 -0.36879
-1.96068 -0.68373 -0.36897
-1.96308 -0.68283 -0.36932
-1.96458 -0.68161 -0.36928
-1.96694 -0.68070 -0.36985
-1.96844 -0.67948 -0.36981
-1.96805 -0.67760 -0.36964
-1.96951 -0.67637 -0.36982
-1.97284 -0.67577 -0.37035
-1.98242 -0.65642 -0.37114
-1.99281 -0.65637 -0.37290
-1.99426 -0.65510 -0.37308
-1.99287 -0.65290 -0.37295
-1.99338 -0.65133 -0.37296
-1.99577 -0.65037 -0.37331
-1.99815 -0.64940 -0.37367
-1.99964 -0.64814 -0.37362
-2.00108 -0.64687 -0.37380
-2.00249 -0.64558 -0.37420
-2.00394 -0.64430 -0.37438
-2.00354 -0.64243 -0.37399
-2.00405 -0.64085 -0.37399
-2.00740 -0.64018 -0.37430
-2.01166 -0.63979 -0.37500
-2.01310 -0.63850 -0.37518
-2.01361 -0.63691 -0.37518
-2.01508 -0.63563 -0.37514
-2.01652 -0.63433 -0.37532
-2.01511 -0.63214 -0.37520
-2.01466 -0.63026 -0.37503
-2.02080 -0.63043 -0.37608
-2.02318 -0.62941 -0.37643
-2.01803 -0.62607 -0.37539
-2.02134 -0.62535 -0.37592
-2.02748 -0.62550 -0.37697
-1.97806 -0.60854 -0.36792
-1.82269 -0.80998 -0.35554
-1.82333 -0.80855 -0.35554
-1.82396 -0.80712 -0.35554
-1.82820 -0.80727 -0.35625
-1.82970 -0.80622 -0.35664
-1.83033 -0.80478 -0.35664
-1.83190 -0.80375 -0.35661
-1.83430 -0.80308 -0.35718
-1.83583 -0.80203 -0.35735
-1.83552 -0.80018 -0.35739
-1.83438 -0.79796 -0.35684
-1.83591 -0.79691 -0.35702
-1.84192 -0.79780 -0.35828
-1.86216 -0.78061 -0.36002
-1.85914 -0.77762 -0.35932
-1.85884 -0.77578 -0.35915
-1.86032 -0.77468 -0.35954
-1.86184 -0.77360 -0.35972
-1.86332 -0.77249 -0.36011
-1.86575 -0.77178 -0.36047
-1.86726 -0.77069 -0.36065
-1.86878 -0.76959 -0.36083
-1.86938 -0.76812 -0.36083
-1.86995 -0.76664 -0.36105
-1.87146 -0.76554 -0.36123
-1.87298 -0.76444 -0.36140
-1.87449 -0.76334 -0.36158
-1.87691 -0.76260 -0.36194
-1.87755 -0.76114 -0.36173
-1.87906 -0.76003 -0.36191
-1.87965 -0.75855 -0.36191
-1.88025 -0.75708 -0.36192
-1.87996 -0.75524 -0.36153
-1.88513 -0.75560 -0.36241
-1.90396 -0.73720 -0.36462
-1.90362 -0.73535 -0.36445
-1.90508 -0.73419 -0.36484
-1.90658 -0.73304 -0.36502
-1.90719 -0.73156 -0.36481
-1.90868 -0.73041 -0.36499
-1.91017 -0.72926 -0.36517
-1.91259 -0.72845 -0.36552
-1.91408 -0.72730 -0.36570
-1.91557 -0.72614 -0.36588
-1.91618 -0.72465 -0.36567
-1.91674 -0.72314 -0.36567
-1.91823 -0.72198 -0.36585
-1.91972 -0.72082 -0.36603
-1.92121 -0.71965 -0.36621
-1.92085 -0.71780 -0.36604
-1.92138 -0.71627 -0.36626
-1.92286 -0.71510 -0.36644
-1.93085 -0.71634 -0.36763
-1.94896 -0.69520 -0.36967
-1.94762 -0.69299 -0.36954
-1.94909 -0.69178 -0.36972
-1.95153 -0.69092 -0.36985
-1.95300 -0.68970 -0.37003
-1.95447 -0.68849 -0.37021
-1.95594 -0.68727 -0.37039
-1.95838 -0.68639 -0.37053
-1.95892 -0.68485 -0.37053
-1.95946 -0.68330 -0.37054
-1.96278 -0.68273 -0.37107
-1.96425 -0.68150 -0.37125
-1.96479 -0.67995 -0.37125
-1.96536 -0.67841 -0.37104
-1.96865 -0.67781 -0.37179
-1.96914 -0.67624 -0.37201
-1.96875 -0.67437 -0.37184
-1.97021 -0.67314 -0.37202
-1.97540 -0.67317 -0.37290
-1.97030 -0.66970 -0.37207
-1.96900 -0.66752 -0.37150
-1.97135 -0.66659 -0.37207
-1.97001 -0.66440 -0.37173
-1.97240 -0.66348 -0.37208
-1.97665 -0.66317 -0.37279
-1.97811 -0.66192 -0.37297
-1.97583 -0.65943 -0.37245
-1.97732 -0.65819 -0.37241
-1.98154 -0.65786 -0.37333
-1.98486 -0.65722 -0.37386
-1.98541 -0.65567 -0.37365
-1.98780 -0.65472 -0.37400
-1.99018 -0.65377 -0.37436
-1.99257 -0.65281 -0.37472
-1.99308 -0.65124 -0.37472
-1.99360 -0.64966 -0.37472
-1.99411 -0.64809 -0.37473
-1.99555 -0.64682 -0.37491
-1.99794 -0.64585 -0.37526
-1.99844 -0.64427 -0.37527
-2.00082 -0.64330 -0.37562
-2.00133 -0.64172 -0.37562
-2.00180 -0.64013 -0.37585
-2.00328 -0.63886 -0.37581
-2.00562 -0.63786 -0.37639
-2.00706 -0.63658 -0.37656
-2.00850 -0.63529 -0.37674
-2.01275 -0.63489 -0.37745
-2.01889 -0.63508 -0.37851
-2.01657 -0.63260 -0.37799
-2.01327 -0.62982 -0.37751
-2.01377 -0.62823 -0.37751
-2.02088 -0.62870 -0.37853
-2.01667 -0.62565 -0.37765
-2.01901 -0.62463 -0.37823
-2.02894 -0.62595 -0.37977
-1.99368 -0.61335 -0.37309
-1.82058 -0.80905 -0.35707
-1.82212 -0.80801 -0.35725
-1.82632 -0.80816 -0.35817
-1.82789 -0.80714 -0.35814
-1.82852 -0.80570 -0.35814
-1.83005 -0.80465 -0.35832
-1.83159 -0.80361 -0.35850
-1.83225 -0.80218 -0.35829
-1.83288 -0.80074 -0.35830
-1.83351 -0.79930 -0.35830
-1.83324 -0.79746 -0.35813
-1.83476 -0.79641 -0.35831
-1.84081 -0.79732 -0.35937
-1.85701 -0.77673 -0.36088
-1.85762 -0.77527 -0.36088
-1.86004 -0.77457 -0.36123
-1.86247 -0.77386 -0.36159
-1.86402 -0.77278 -0.36156
-1.86372 -0.77094 -0.36139
-1.86432 -0.76948 -0.36139
-1.86675 -0.76876 -0.36175
-1.86826 -0.76766 -0.36193
-1.86887 -0.76619 -0.36193
-1.87125 -0.76545 -0.36250
-1.87185 -0.76398 -0.36250
-1.87337 -0.76288 -0.36268
-1.87396 -0.76141 -0.36269
-1.87547 -0.76030 -0.36287
-1.87790 -0.75957 -0.36322
-1.87941 -0.75846 -0.36340
-1.87905 -0.75660 -0.36344
-1.87873 -0.75475 -0.36327
-1.88298 -0.75474 -0.36398
-1.90650 -0.73818 -0.36643
-1.90341 -0.73526 -0.36573
-1.90307 -0.73341 -0.36556
-1.90548 -0.73262 -0.36591
-1.90697 -0.73147 -0.36609
-1.90755 -0.72997 -0.36610
-1.90812 -0.72847 -0.36610
-1.90958 -0.72731 -0.36650
-1.91107 -0.72615 -0.36668
-1.91164 -0.72465 -0.36668
-1.91405 -0.72384 -0.36704
-1.91554 -0.72269 -0.36722
-1.91702 -0.72152 -0.36740
-1.91940 -0.72070 -0.36797
-1.92088 -0.71953 -0.36815
-1.92145 -0.71802 -0.36815
-1.92201 -0.71651 -0.36816
-1.92257 -0.71500 -0.36816
-1.92683 -0.71485 -0.36887
-1.94867 -0.69510 -0.37140
-1.94550 -0.69224 -0.37070
-1.94605 -0.69071 -0.37071
-1.95123 -0.69081 -0.37159
-1.95360 -0.68991 -0.37217
-1.95414 -0.68837 -0.37217
-1.95468 -0.68683 -0.37217
-1.95615 -0.68561 -0.37235
-1.95762 -0.68439 -0.37254
-1.95909 -0.68317 -0.37272
-1.95869 -0.68131 -0.37254
-1.96020 -0.68009 -0.37251
-1.96166 -0.67887 -0.37269
-1.96313 -0.67764 -0.37287
-1.96552 -0.67673 -0.37322
-1.96606 -0.67518 -0.37323
-1.96662 -0.67364 -0.37301
-1.96902 -0.67273 -0.37337
-1.97141 -0.67181 -0.37373
-1.97101 -0.66994 -0.37355
-1.96967 -0.66775 -0.37321
-1.97113 -0.66651 -0.37339
-1.97449 -0.66591 -0.37370
-1.97591 -0.66465 -0.37410
-1.97643 -0.66310 -0.37410
-1.97695 -0.66154 -0.37411
-1.98027 -0.66091 -0.37464
-1.98173 -0.65966 -0.37482
-1.98318 -0.65841 -0.37500
-1.98460 -0.65714 -0.37540
-1.98511 -0.65557 -0.37540
-1.98750 -0.65462 -0.37576
-1.98895 -0.65336 -0.37594
-1.99223 -0.65270 -0.37670
-1.99649 -0.65235 -0.37741
-1.99794 -0.65108 -0.37759
-1.99096 -0.64707 -0.37618
-1.99151 -0.64551 -0.37596
-1.99857 -0.64606 -0.37720
-2.00189 -0.64538 -0.37774
-1.99678 -0.64200 -0.37668
-2.02006 -0.63369 -0.38025
-2.01680 -0.63092 -0.37955
-2.01354 -0.62816 -0.37884
-2.01873 -0.62803 -0.37973
-2.01735 -0.62586 -0.37938
-2.01502 -0.62339 -0.37885
-2.02397 -0.62441 -0.38045
-2.01126 -0.61875 -0.37820
-1.89036 -0.57993 -0.35538
-1.82204 -0.80969 -0.35951
-1.82174 -0.80785 -0.35955
-1.82147 -0.80602 -0.35938
-1.82301 -0.80498 -0.35956
-1.82544 -0.80434 -0.35992
-1.82787 -0.80370 -0.36028
-1.82850 -0.80226 -0.36028
-1.83003 -0.80121 -0.36046
-1.83070 -0.79979 -0.36025
-1.83129 -0.79833 -0.36047
-1.83282 -0.79728 -0.36065
-1.83435 -0.79623 -0.36083
-1.83591 -0.79520 -0.36080
-1.85905 -0.77587 -0.36356
-1.85693 -0.77327 -0.36303
-1.85939 -0.77258 -0.36318
-1.86182 -0.77187 -0.36354
-1.86239 -0.77039 -0.36375
-1.86303 -0.76894 -0.36354
-1.86363 -0.76747 -0.36355
-1.86696 -0.76713 -0.36408
-1.86939 -0.76641 -0.36444
-1.87090 -0.76531 -0.36462
-1.87059 -0.76347 -0.36445
-1.87214 -0.76238 -0.36442
-1.87365 -0.76128 -0.36460
-1.87516 -0.76017 -0.36478
-1.87663 -0.75905 -0.36517
-1.87723 -0.75758 -0.36518
-1.87691 -0.75573 -0.36500
-1.87662 -0.75390 -0.36462
-1.87813 -0.75279 -0.36480
-1.88599 -0.75422 -0.36643
-1.90389 -0.73545 -0.36848
-1.90083 -0.73255 -0.36756
-1.90233 -0.73141 -0.36774
-1.90470 -0.73060 -0.36831
-1.90715 -0.72982 -0.36846
-1.90680 -0.72797 -0.36828
-1.90738 -0.72647 -0.36829
-1.90982 -0.72568 -0.36843
-1.91131 -0.72453 -0.36861
-1.91372 -0.72372 -0.36897
-1.91521 -0.72256 -0.36915
-1.91670 -0.72140 -0.36933
-1.91726 -0.71989 -0.36934
-1.91783 -0.71839 -0.36934
-1.91931 -0.71722 -0.36952
-1.91984 -0.71570 -0.36974
-1.92133 -0.71453 -0.36992
-1.92370 -0.71369 -0.37050
-1.92983 -0.71423 -0.37135
-1.93296 -0.69983 -0.37124
-1.93444 -0.69864 -0.37143
-1.93410 -0.69679 -0.37104
-1.93557 -0.69560 -0.37122
-1.93797 -0.69473 -0.37158
-1.93945 -0.69353 -0.37176
-1.94277 -0.69300 -0.37229
-1.94610 -0.69245 -0.37283
-1.94665 -0.69092 -0.37284
-1.94719 -0.68938 -0.37284
-1.95052 -0.68883 -0.37338
-1.95384 -0.68827 -0.37391
-1.95435 -0.68671 -0.37413
-1.95396 -0.68485 -0.37396
-1.95636 -0.68395 -0.37432
-1.95689 -0.68241 -0.37432
-1.95650 -0.68054 -0.37415
-1.95797 -0.67932 -0.37433
-1.96032 -0.67841 -0.37491
-1.96090 -0.67687 -0.37469
-1.96139 -0.67531 -0.37491
-1.96192 -0.67376 -0.37492
-1.96525 -0.67317 -0.37545
-1.96671 -0.67194 -0.37564
-1.96440 -0.66942 -0.37533
-1.96590 -0.66820 -0.37529
-1.96922 -0.66760 -0.37583
-1.97161 -0.66668 -0.37618
-1.97307 -0.66543 -0.37637
-1.97359 -0.66388 -0.37637
-1.97695 -0.66327 -0.37669
-1.97938 -0.66235 -0.37683
-1.97803 -0.66016 -0.37648
-1.97762 -0.65829 -0.37630
-1.97907 -0.65704 -0.37649
-1.98613 -0.65764 -0.37773
-1.98758 -0.65639 -0.37791
-1.98810 -0.65482 -0.37792
-1.98768 -0.65294 -0.37774
-1.98819 -0.65137 -0.37775
-1.99057 -0.65041 -0.37811
-2.01548 -0.63051 -0.38159
-2.01316 -0.62804 -0.38106
-2.01177 -0.62587 -0.38071
-2.01791 -0.62603 -0.38178
-2.01280 -0.62270 -0.38049
-2.01701 -0.62226 -0.38143
-2.02502 -0.62299 -0.38286
-1.97753 -0.60667 -0.37379
-1.81996 -0.80877 -0.36083
-1.81880 -0.80654 -0.36048
-1.81857 -0.80473 -0.36010
-1.82006 -0.80368 -0.36049
-1.82340 -0.80344 -0.36103
-1.82583 -0.80280 -0.36139
-1.82826 -0.80215 -0.36175
-1.82889 -0.80071 -0.36175
-1.83042 -0.79967 -0.36193
-1.83011 -0.79782 -0.36197
-1.83074 -0.79638 -0.36197
-1.83136 -0.79494 -0.36197
-1.83195 -0.79348 -0.36219
-1.83528 -0.79321 -0.36273
-1.85793 -0.77540 -0.36465
-1.85578 -0.77279 -0.36433
-1.85729 -0.77171 -0.36451
-1.86066 -0.77139 -0.36484
-1.86214 -0.77029 -0.36523
-1.86274 -0.76882 -0.36524
-1.86331 -0.76734 -0.36545
-1.86300 -0.76550 -0.36528
-1.86452 -0.76441 -0.36546
-1.86876 -0.76443 -0.36618
-1.87020 -0.76331 -0.36678
-1.87087 -0.76186 -0.36636
-1.87147 -0.76039 -0.36636
-1.87389 -0.75966 -0.36673
-1.87448 -0.75818 -0.36673
-1.87511 -0.75672 -0.36652
-1.87567 -0.75523 -0.36674
-1.87630 -0.75377 -0.36653
-1.87781 -0.75266 -0.36671
-1.88022 -0.75192 -0.36707
-1.89178 -0.75481 -0.36922
-1.90323 -0.73347 -0.37023
-1.90105 -0.73092 -0.36970
-1.90162 -0.72942 -0.36971
-1.90311 -0.72828 -0.36989
-1.90648 -0.72785 -0.37021
-1.90701 -0.72633 -0.37043
-1.90762 -0.72484 -0.37022
-1.90911 -0.72369 -0.37040
-1.91152 -0.72289 -0.37076
-1.91301 -0.72173 -0.37095
-1.91357 -0.72023 -0.37095
-1.91506 -0.71907 -0.37113
-1.91658 -0.71792 -0.37110
-1.91807 -0.71676 -0.37128
-1.92047 -0.71593 -0.37164
-1.92103 -0.71442 -0.37164
-1.91979 -0.71224 -0.37108
-1.92031 -0.71071 -0.37129
-1.92549 -0.71090 -0.37219
-1.92697 -0.70972 -0.37237
-1.92291 -0.70650 -0.37148
-1.92439 -0.70532 -0.37167
-1.92587 -0.70414 -0.37185
-1.92550 -0.70228 -0.37167
-1.92786 -0.70142 -0.37225
-1.93027 -0.70057 -0.37261
-1.93267 -0.69972 -0.37297
-1.93414 -0.69853 -0.37315
-1.93562 -0.69734 -0.37334
-1.93706 -0.69613 -0.37373
-1.93857 -0.69495 -0.37370
-1.94186 -0.69440 -0.37446
-1.94240 -0.69286 -0.37446
-1.94110 -0.69067 -0.37411
-1.94168 -0.68915 -0.37389
-1.94500 -0.68861 -0.37443
-1.94740 -0.68773 -0.37479
-1.94980 -0.68684 -0.37516
-1.95219 -0.68596 -0.37552
-1.94995 -0.68344 -0.37498
-1.94956 -0.68158 -0.37481
-1.95381 -0.68133 -0.37553
-1.95620 -0.68044 -0.37589
-1.95488 -0.67825 -0.37554
-1.95449 -0.67639 -0.37536
-1.95688 -0.67549 -0.37572
-1.95834 -0.67426 -0.37590
-1.95887 -0.67272 -0.37591
-1.96219 -0.67213 -0.37645
-1.96321 -0.66902 -0.37667
-1.96560 -0.66810 -0.37703
-1.96799 -0.66718 -0.37739
-1.97131 -0.66657 -0.37793
-1.97277 -0.66533 -0.37812
-1.97423 -0.66409 -0.37830
-1.97568 -0.66284 -0.37848
-1.97620 -0.66129 -0.37849
-1.97766 -0.66004 -0.37867
-1.98004 -0.65910 -0.37903
-1.98056 -0.65754 -0.37903
-1.98295 -0.65659 -0.37939
-1.98440 -0.65534 -0.37958
-1.98495 -0.65378 -0.37936
-1.98734 -0.65283 -0.37972
-1.98785 -0.65126 -0.37972
-1.98743 -0.64939 -0.37955
-1.98981 -0.64843 -0.37991
-2.01375 -0.62823 -0.38323
-2.01139 -0.62575 -0.38292
-2.01094 -0.62387 -0.38274
-2.01707 -0.62403 -0.38382
-2.01478 -0.62158 -0.38307
-2.01621 -0.62028 -0.38325
-2.02423 -0.62099 -0.38468
-1.98430 -0.60703 -0.37678
-1.81582 -0.80522 -0.36162
-1.81735 -0.80419 -0.36180
-1.81982 -0.80357 -0.36195
-1.82225 -0.80293 -0.36231
-1.82375 -0.80188 -0.36270
-1.82531 -0.80086 -0.36268
-1.82684 -0.79982 -0.36286
-1.82744 -0.79836 -0.36307
-1.82806 -0.79692 -0.36308
-1.83049 -0.79627 -0.36344
-1.83112 -0.79483 -0.36344
-1.83171 -0.79338 -0.36366
-1.83414 -0.79271 -0.36402
-1.84112 -0.79402 -0.36506
-1.86037 -0.77642 -0.36688
-1.85553 -0.77269 -0.36581
-1.85523 -0.77085 -0.36563
-1.85765 -0.77014 -0.36599
-1.86098 -0.76981 -0.36653
-1.86159 -0.76834 -0.36654
-1.86128 -0.76651 -0.36636
-1.86279 -0.76541 -0.36655
-1.86430 -0.76432 -0.36673
-1.86578 -0.76321 -0.36712
-1.86641 -0.76176 -0.36691
-1.86880 -0.76102 -0.36749
-1.87118 -0.76028 -0.36806
-1.87269 -0.75917 -0.36824
-1.87329 -0.75770 -0.36825
-1.87388 -0.75623 -0.36825
-1.87539 -0.75512 -0.36844
-1.87689 -0.75401 -0.36862
-1.87657 -0.75217 -0.36844
-1.87990 -0.75179 -0.36898
-1.90022 -0.73231 -0.37119
-1.89988 -0.73047 -0.37102
-1.90137 -0.72932 -0.37120
-1.90286 -0.72818 -0.37139
-1.90343 -0.72668 -0.37139
-1.90584 -0.72589 -0.37175
-1.90729 -0.72472 -0.37215
-1.90786 -0.72322 -0.37215
-1.91027 -0.72242 -0.37251
-1.91176 -0.72126 -0.37270
-1.91140 -0.71941 -0.37252
-1.91197 -0.71791 -0.37253
-1.91345 -0.71675 -0.37271
-1.91678 -0.71627 -0.37325
-1.91738 -0.71478 -0.37304
-1.91794 -0.71327 -0.37304
-1.91942 -0.71210 -0.37323
-1.92186 -0.71128 -0.37337
-1.92242 -0.70977 -0.37338
-1.92206 -0.70791 -0.37320
-1.92354 -0.70673 -0.37339
-1.92594 -0.70589 -0.37375
-1.92835 -0.70505 -0.37411
