-1.31060 -0.93995 -0.32380
-1.30971 -0.93776 -0.32359
-1.31128 -0.93732 -0.32361
-1.31282 -0.93685 -0.32381
-1.31355 -0.93581 -0.32382
-1.31349 -0.93421 -0.32362
-1.31263 -0.93204 -0.32323
-1.31414 -0.93155 -0.32360
-1.31567 -0.93107 -0.32380
-1.31640 -0.93004 -0.32381
-1.31633 -0.92843 -0.32361
-1.31626 -0.92683 -0.32342
-1.31616 -0.92521 -0.32340
-1.31689 -0.92417 -0.32340
-1.31762 -0.92313 -0.32340
-1.31838 -0.92211 -0.32323
-1.31908 -0.92105 -0.32341
-1.31980 -0.92001 -0.32341
-1.32053 -0.91896 -0.32342
-1.32044 -0.91736 -0.32322
-1.32197 -0.91688 -0.32342
-1.33159 -0.92199 -0.32542
-1.31768 -0.90929 -0.32185
-1.31923 -0.90883 -0.32188
-1.32475 -0.88667 -0.32053
-1.33334 -0.88786 -0.32228
-1.33241 -0.88572 -0.32189
-1.33229 -0.88412 -0.32170
-1.33380 -0.88361 -0.32190
-1.33450 -0.88256 -0.32190
-1.33519 -0.88151 -0.32190
-1.33589 -0.88045 -0.32191
-1.33576 -0.87886 -0.32171
-1.33646 -0.87781 -0.32172
-1.33718 -0.87677 -0.32155
-1.33787 -0.87572 -0.32155
-1.33938 -0.87519 -0.32175
-1.33928 -0.87362 -0.32139
-1.33996 -0.87256 -0.32139
-1.34065 -0.87151 -0.32139
-1.34134 -0.87045 -0.32139
-1.34202 -0.86939 -0.32140
-1.34106 -0.86726 -0.32101
-1.34010 -0.86514 -0.32062
-1.33996 -0.86355 -0.32042
-1.34146 -0.86303 -0.32062
-1.34296 -0.86250 -0.32082
-1.34285 -0.86093 -0.32046
-1.34350 -0.85985 -0.32063
-1.34500 -0.85932 -0.32083
-1.34896 -0.86035 -0.32179
-1.33888 -0.85244 -0.31923
-1.33955 -0.85138 -0.31923
-1.33988 -0.84714 -0.31902
-1.34720 -0.83550 -0.31888
-1.34670 -0.83078 -0.31813
-1.34401 -0.82766 -0.31734
-1.36119 -0.83528 -0.32110
-1.35513 -0.83009 -0.31969
-1.35498 -0.82853 -0.31933
-1.35814 -0.82899 -0.31992
-1.35877 -0.82790 -0.32010
-1.35858 -0.82632 -0.31990
-1.35839 -0.82474 -0.31971
-1.35901 -0.82365 -0.31988
-1.35969 -0.82259 -0.31971
-1.35950 -0.82101 -0.31952
-1.36012 -0.81992 -0.31969
-1.36076 -0.81885 -0.31969
-1.36225 -0.81828 -0.31989
-1.36205 -0.81670 -0.31970
-1.36270 -0.81563 -0.31970
-1.36250 -0.81405 -0.31951
-1.36398 -0.81347 -0.31971
-1.36462 -0.81240 -0.31971
-1.36526 -0.81132 -0.31972
-1.36421 -0.80924 -0.31932
-1.36485 -0.80817 -0.31933
-1.36549 -0.80709 -0.31933
-1.36784 -0.80703 -0.31956
-1.36848 -0.80595 -0.31956
-1.36827 -0.80437 -0.31937
-1.36890 -0.80329 -0.31937
-1.37379 -0.80470 -0.32019
-1.36575 -0.79710 -0.31802
-1.36700 -0.79494 -0.31803
-1.36511 -0.79241 -0.31727
-1.36571 -0.79131 -0.31744
-1.37035 -0.79112 -0.31824
-1.37264 -0.79100 -0.31881
-1.37159 -0.78895 -0.31825
-1.36794 -0.78541 -0.31743
-1.36682 -0.78334 -0.31721
-1.36999 -0.78372 -0.31780
-1.37061 -0.78264 -0.31781
-1.37355 -0.78145 -0.31821
-1.37246 -0.77939 -0.31781
-1.37368 -0.77723 -0.31782
-1.37088 -0.77421 -0.31703
-1.38751 -0.78072 -0.32042
-1.37869 -0.77433 -0.31842
-1.37677 -0.77182 -0.31767
-1.37908 -0.77169 -0.31806
-1.38140 -0.77156 -0.31846
-1.38030 -0.76951 -0.31807
-1.38005 -0.76795 -0.31788
-1.38151 -0.76733 -0.31808
-1.38300 -0.76674 -0.31811
-1.38446 -0.76612 -0.31831
-1.38504 -0.76501 -0.31848
-1.38478 -0.76344 -0.31828
-1.38538 -0.76235 -0.31829
-1.38684 -0.76173 -0.31849
-1.38744 -0.76063 -0.31849
-1.38718 -0.75907 -0.31830
-1.38778 -0.75797 -0.31830
-1.38835 -0.75686 -0.31847
-1.38894 -0.75577 -0.31847
-1.39040 -0.75514 -0.31867
-1.39099 -0.75404 -0.31868
-1.39073 -0.75248 -0.31848
-1.39218 -0.75184 -0.31868
-1.39188 -0.75026 -0.31866
-1.39164 -0.74872 -0.31829
-1.39047 -0.74668 -0.31807
-1.39364 -0.74698 -0.31867
-1.39945 -0.74867 -0.31968
-1.38848 -0.74000 -0.31710
-1.39166 -0.74029 -0.31769
-1.38794 -0.73691 -0.31654
-1.38851 -0.73582 -0.31654
-1.38909 -0.73473 -0.31654
-1.38967 -0.73364 -0.31655
-1.39374 -0.73439 -0.31717
-1.39692 -0.73467 -0.31777
-1.39403 -0.73175 -0.31698
-1.39199 -0.72929 -0.31639
-1.39517 -0.72956 -0.31699
-1.39661 -0.72891 -0.31719
-1.39371 -0.72600 -0.31640
-1.39431 -0.72492 -0.31623
-1.39746 -0.72517 -0.31700
-1.39802 -0.72407 -0.31700
-1.39685 -0.72207 -0.31661
-1.39480 -0.71962 -0.31602
-1.39450 -0.71808 -0.31582
-1.40780 -0.72213 -0.31876
-1.40139 -0.71745 -0.31719
-1.40195 -0.71635 -0.31719
-1.40339 -0.71570 -0.31739
-1.40479 -0.71502 -0.31776
-1.40538 -0.71394 -0.31759
-1.40591 -0.71282 -0.31776
-1.40647 -0.71171 -0.31777
-1.40528 -0.70972 -0.31738
-1.40674 -0.70907 -0.31741
-1.40730 -0.70797 -0.31741
-1.40607 -0.70597 -0.31719
-1.40753 -0.70532 -0.31722
-1.40984 -0.70509 -0.31762
-1.39285 -0.69522 -0.31367
-1.30160 -0.96174 -0.32666
-1.29762 -0.95723 -0.32548
-1.29995 -0.95737 -0.32588
-1.30228 -0.95751 -0.32627
-1.30226 -0.95593 -0.32591
-1.30220 -0.95430 -0.32588
-1.30295 -0.95328 -0.32589
-1.30370 -0.95225 -0.32589
-1.30366 -0.95064 -0.32570
-1.30364 -0.94905 -0.32533
-1.30439 -0.94803 -0.32533
-1.30514 -0.94700 -0.32533
-1.30668 -0.94654 -0.32554
-1.30822 -0.94608 -0.32574
-1.30658 -0.94333 -0.32515
-1.30729 -0.94228 -0.32532
-1.30883 -0.94182 -0.32552
-1.30957 -0.94079 -0.32553
-1.30952 -0.93918 -0.32533
-1.30946 -0.93758 -0.32514
-1.31100 -0.93711 -0.32534
-1.31173 -0.93608 -0.32534
-1.31247 -0.93504 -0.32534
-1.31321 -0.93401 -0.32535
-1.31232 -0.93181 -0.32512
-1.31225 -0.93021 -0.32493
-1.31379 -0.92974 -0.32513
-1.31612 -0.92984 -0.32553
-1.31605 -0.92823 -0.32533
-1.31438 -0.92550 -0.32474
-1.31350 -0.92334 -0.32435
-1.31584 -0.92343 -0.32475
-1.31739 -0.92297 -0.32478
-1.31809 -0.92191 -0.32495
-1.31804 -0.92033 -0.32459
-1.31957 -0.91985 -0.32479
-1.31949 -0.91825 -0.32459
-1.31941 -0.91665 -0.32440
-1.32094 -0.91616 -0.32460
-1.31587 -0.90804 -0.32266
-1.32449 -0.88650 -0.32206
-1.33326 -0.88932 -0.32368
-1.32906 -0.88501 -0.32249
-1.33057 -0.88450 -0.32269
-1.33372 -0.88507 -0.32329
-1.33360 -0.88348 -0.32310
-1.33430 -0.88243 -0.32310
-1.33418 -0.88084 -0.32290
-1.33487 -0.87978 -0.32291
-1.33559 -0.87875 -0.32274
-1.33625 -0.87767 -0.32291
-1.33613 -0.87608 -0.32272
-1.33764 -0.87556 -0.32292
-1.33833 -0.87451 -0.32292
-1.33902 -0.87345 -0.32293
-1.33809 -0.87134 -0.32236
-1.33872 -0.87025 -0.32271
-1.33940 -0.86919 -0.32271
-1.34094 -0.86869 -0.32274
-1.34077 -0.86708 -0.32271
-1.34063 -0.86549 -0.32252
-1.34129 -0.86441 -0.32269
-1.34200 -0.86337 -0.32253
-1.34185 -0.86178 -0.32233
-1.34168 -0.86018 -0.32231
-1.34235 -0.85912 -0.32231
-1.34468 -0.85911 -0.32271
-1.35530 -0.86440 -0.32492
-1.33926 -0.85120 -0.32093
-1.34047 -0.84752 -0.32057
-1.34467 -0.83540 -0.31967
-1.34700 -0.83537 -0.32007
-1.34644 -0.83062 -0.31965
-1.35425 -0.83102 -0.32105
-1.35320 -0.82891 -0.32083
-1.35469 -0.82835 -0.32103
-1.35534 -0.82728 -0.32103
-1.35767 -0.82723 -0.32143
-1.35832 -0.82616 -0.32143
-1.35897 -0.82509 -0.32143
-1.35878 -0.82351 -0.32124
-1.36027 -0.82294 -0.32144
-1.35924 -0.82085 -0.32105
-1.35985 -0.81976 -0.32122
-1.36053 -0.81871 -0.32105
-1.36117 -0.81763 -0.32106
-1.36182 -0.81656 -0.32106
-1.36246 -0.81549 -0.32106
-1.36310 -0.81441 -0.32106
-1.36378 -0.81335 -0.32090
-1.36357 -0.81177 -0.32070
-1.36503 -0.81118 -0.32107
-1.36485 -0.80962 -0.32071
-1.36380 -0.80754 -0.32032
-1.36528 -0.80697 -0.32052
-1.36758 -0.80687 -0.32109
-1.36740 -0.80531 -0.32072
-1.36719 -0.80373 -0.32053
-1.36864 -0.80313 -0.32090
-1.37857 -0.80750 -0.32308
-1.36376 -0.79594 -0.31932
-1.36523 -0.79536 -0.31952
-1.36479 -0.79222 -0.31913
-1.36538 -0.79112 -0.31930
-1.37002 -0.79093 -0.32010
-1.36980 -0.78936 -0.31990
-1.36872 -0.78730 -0.31951
-1.37166 -0.78611 -0.31991
-1.37058 -0.78406 -0.31952
-1.36841 -0.77995 -0.31873
-1.36817 -0.77839 -0.31854
-1.36708 -0.77634 -0.31814
-1.37089 -0.77565 -0.31858
-1.37150 -0.77456 -0.31858
-1.38126 -0.77720 -0.32057
-1.37592 -0.77277 -0.31901
-1.37653 -0.77168 -0.31902
-1.37885 -0.77156 -0.31942
-1.38031 -0.77095 -0.31962
-1.37835 -0.76843 -0.31903
-1.37981 -0.76781 -0.31923
-1.38213 -0.76768 -0.31963
-1.38359 -0.76706 -0.31983
-1.38334 -0.76550 -0.31963
-1.38480 -0.76488 -0.31983
-1.38454 -0.76331 -0.31964
-1.38597 -0.76267 -0.32001
-1.38657 -0.76158 -0.32001
-1.38631 -0.76001 -0.31982
-1.38602 -0.75843 -0.31979
-1.38662 -0.75734 -0.31979
-1.38808 -0.75672 -0.31999
-1.38781 -0.75515 -0.31980
-1.38841 -0.75406 -0.31980
-1.38986 -0.75343 -0.32000
-1.38959 -0.75186 -0.31981
-1.39018 -0.75077 -0.31981
-1.39078 -0.74967 -0.31981
-1.39050 -0.74811 -0.31962
-1.39112 -0.74703 -0.31945
-1.39430 -0.74733 -0.32005
-1.38942 -0.74190 -0.31867
-1.38913 -0.74035 -0.31847
-1.39145 -0.74018 -0.31887
-1.39203 -0.73909 -0.31887
-1.38827 -0.73570 -0.31788
-1.38885 -0.73461 -0.31789
-1.39116 -0.73443 -0.31829
-1.39260 -0.73379 -0.31849
-1.39058 -0.73133 -0.31790
-1.38942 -0.72933 -0.31750
-1.39172 -0.72915 -0.31790
-1.39143 -0.72760 -0.31771
-1.39284 -0.72694 -0.31808
-1.39341 -0.72585 -0.31808
-1.39398 -0.72475 -0.31808
-1.39280 -0.72275 -0.31769
-1.39511 -0.72256 -0.31809
-1.39565 -0.72145 -0.31826
-1.39537 -0.71992 -0.31790
-1.39681 -0.71927 -0.31810
-1.40401 -0.72019 -0.31966
-1.40196 -0.71775 -0.31907
-1.40252 -0.71664 -0.31907
-1.40308 -0.71554 -0.31907
-1.40367 -0.71446 -0.31891
-1.40426 -0.71337 -0.31874
-1.40567 -0.71269 -0.31911
-1.40623 -0.71159 -0.31912
-1.40591 -0.71004 -0.31892
-1.40650 -0.70895 -0.31876
-1.40968 -0.70917 -0.31935
-1.40761 -0.70674 -0.31876
-1.40641 -0.70476 -0.31837
-1.40871 -0.70453 -0.31877
-1.40927 -0.70342 -0.31877
-1.37385 -0.68439 -0.31064
-1.32113 -0.97618 -0.33266
-1.29824 -0.95768 -0.32671
-1.29899 -0.95666 -0.32671
-1.30211 -0.95738 -0.32731
-1.30125 -0.95518 -0.32709
-1.30203 -0.95418 -0.32692
-1.30278 -0.95315 -0.32692
-1.30350 -0.95210 -0.32710
-1.30267 -0.94992 -0.32671
-1.30342 -0.94889 -0.32671
-1.30572 -0.94899 -0.32728
-1.30647 -0.94796 -0.32728
-1.30719 -0.94691 -0.32746
-1.30637 -0.94475 -0.32689
-1.30632 -0.94315 -0.32670
-1.30786 -0.94269 -0.32690
-1.30860 -0.94166 -0.32690
-1.30935 -0.94062 -0.32691
-1.30929 -0.93902 -0.32671
-1.30923 -0.93741 -0.32651
-1.30997 -0.93638 -0.32652
-1.31071 -0.93535 -0.32652
-1.31145 -0.93431 -0.32652
-1.31138 -0.93271 -0.32633
-1.31135 -0.93113 -0.32596
-1.31208 -0.93009 -0.32596
-1.31282 -0.92906 -0.32597
-1.31435 -0.92858 -0.32617
-1.31428 -0.92698 -0.32597
-1.31501 -0.92595 -0.32597
-1.31654 -0.92547 -0.32618
-1.31727 -0.92443 -0.32618
-1.31719 -0.92283 -0.32598
-1.31709 -0.92121 -0.32596
-1.31784 -0.92019 -0.32579
-1.31854 -0.91913 -0.32597
-1.31927 -0.91809 -0.32597
-1.31757 -0.91537 -0.32538
-1.31830 -0.91433 -0.32538
-1.32385 -0.91663 -0.32657
-1.31559 -0.90785 -0.32437
-1.31630 -0.90681 -0.32437
-1.32281 -0.88688 -0.32288
-1.33064 -0.88757 -0.32411
-1.32807 -0.88435 -0.32332
-1.32959 -0.88384 -0.32352
-1.33189 -0.88386 -0.32409
-1.33340 -0.88335 -0.32429
-1.33328 -0.88175 -0.32410
-1.33394 -0.88068 -0.32427
-1.33464 -0.87963 -0.32427
-1.33533 -0.87858 -0.32428
-1.33602 -0.87752 -0.32428
-1.33671 -0.87647 -0.32428
-1.33577 -0.87434 -0.32389
-1.33645 -0.87328 -0.32389
-1.33796 -0.87277 -0.32409
-1.33783 -0.87117 -0.32390
-1.33852 -0.87012 -0.32390
-1.33920 -0.86906 -0.32390
-1.33989 -0.86801 -0.32391
-1.34139 -0.86748 -0.32411
-1.34043 -0.86536 -0.32371
-1.34029 -0.86377 -0.32352
-1.34097 -0.86271 -0.32352
-1.34082 -0.86112 -0.32332
-1.34150 -0.86006 -0.32333
-1.34303 -0.85955 -0.32336
-1.34701 -0.86060 -0.32416
-1.33912 -0.85110 -0.32178
-1.34693 -0.85160 -0.32318
-1.34425 -0.84842 -0.32256
-1.34837 -0.83622 -0.32216
-1.35136 -0.83512 -0.32257
-1.34534 -0.82994 -0.32098
-1.35064 -0.82880 -0.32178
-1.35213 -0.82825 -0.32198
-1.35448 -0.82822 -0.32221
-1.35848 -0.82920 -0.32301
-1.35830 -0.82761 -0.32282
-1.35811 -0.82603 -0.32262
-1.35709 -0.82394 -0.32223
-1.35777 -0.82289 -0.32206
-1.35925 -0.82233 -0.32226
-1.35990 -0.82125 -0.32226
-1.35971 -0.81968 -0.32207
-1.36035 -0.81860 -0.32207
-1.36100 -0.81753 -0.32207
-1.36248 -0.81696 -0.32228
-1.36229 -0.81538 -0.32208
-1.36293 -0.81430 -0.32208
-1.36270 -0.81271 -0.32206
-1.36250 -0.81113 -0.32186
-1.36398 -0.81056 -0.32206
-1.36546 -0.80998 -0.32227
-1.36610 -0.80890 -0.32227
-1.36586 -0.80731 -0.32224
-1.36650 -0.80623 -0.32224
-1.36541 -0.80414 -0.32202
-1.36520 -0.80257 -0.32182
-1.36924 -0.80349 -0.32245
-1.36797 -0.79985 -0.32186
-1.36437 -0.79629 -0.32087
-1.36709 -0.79356 -0.32108
-1.36605 -0.79151 -0.32051
-1.36815 -0.78984 -0.32072
-1.37044 -0.78973 -0.32129
-1.36936 -0.78767 -0.32089
-1.37403 -0.78747 -0.32153
-1.37295 -0.78541 -0.32113
-1.36846 -0.78141 -0.31994
-1.36969 -0.77925 -0.31994
-1.36860 -0.77721 -0.31955
-1.36980 -0.77503 -0.31972
-1.37126 -0.77443 -0.31993
-1.37843 -0.77561 -0.32149
-1.37648 -0.77308 -0.32090
-1.37794 -0.77248 -0.32110
-1.38026 -0.77235 -0.32150
-1.38255 -0.77220 -0.32207
-1.38144 -0.77015 -0.32168
-1.38208 -0.76908 -0.32151
-1.38183 -0.76751 -0.32132
-1.38243 -0.76642 -0.32132
-1.38307 -0.76535 -0.32115
-1.38281 -0.76378 -0.32096
-1.38341 -0.76269 -0.32096
-1.38487 -0.76207 -0.32116
-1.38461 -0.76050 -0.32097
-1.38349 -0.75847 -0.32057
-1.38409 -0.75738 -0.32057
-1.38644 -0.75724 -0.32081
-1.38790 -0.75662 -0.32101
-1.38763 -0.75505 -0.32081
-1.38736 -0.75349 -0.32061
-1.38796 -0.75240 -0.32062
-1.38944 -0.75178 -0.32065
-1.39173 -0.75160 -0.32122
-1.39146 -0.75004 -0.32103
-1.39119 -0.74848 -0.32083
-1.39008 -0.74647 -0.32027
-1.39063 -0.74536 -0.32044
-1.38748 -0.74087 -0.31945
-1.38806 -0.73978 -0.31945
-1.38864 -0.73869 -0.31945
-1.38832 -0.73712 -0.31943
-1.39063 -0.73695 -0.31983
-1.39291 -0.73675 -0.32040
-1.39262 -0.73520 -0.32020
-1.38973 -0.73228 -0.31941
-1.39031 -0.73119 -0.31941
-1.39264 -0.73102 -0.31964
-1.39322 -0.72993 -0.31965
-1.39032 -0.72702 -0.31885
-1.39089 -0.72592 -0.31885
-1.39490 -0.72663 -0.31982
-1.39376 -0.72464 -0.31926
-1.38911 -0.72084 -0.31807
-1.39142 -0.72065 -0.31847
-1.39376 -0.72047 -0.31870
-1.39171 -0.71803 -0.31811
-1.39311 -0.71737 -0.31848
-1.40068 -0.71987 -0.31990
-1.39829 -0.71587 -0.31928
-1.40059 -0.71566 -0.31968
-1.40290 -0.71545 -0.32009
-1.40346 -0.71435 -0.32009
-1.40318 -0.71282 -0.31972
-1.40458 -0.71214 -0.32009
-1.40514 -0.71104 -0.32010
-1.40567 -0.70992 -0.32027
-1.40797 -0.70969 -0.32067
-1.40768 -0.70816 -0.32030
-1.40561 -0.70574 -0.31971
-1.40701 -0.70506 -0.32008
-1.41019 -0.70527 -0.32068
-1.40107 -0.69933 -0.31866
-1.30190 -0.96197 -0.32980
-1.29714 -0.95687 -0.32841
-1.29868 -0.95644 -0.32861
-1.30022 -0.95600 -0.32881
-1.30097 -0.95497 -0.32882
-1.30172 -0.95395 -0.32882
-1.30250 -0.95295 -0.32865
-1.30325 -0.95192 -0.32865
-1.30400 -0.95089 -0.32866
-1.30316 -0.94871 -0.32826
-1.30470 -0.94825 -0.32846
-1.30624 -0.94780 -0.32866
-1.30461 -0.94504 -0.32807
-1.30459 -0.94346 -0.32770
-1.30612 -0.94300 -0.32790
-1.30687 -0.94197 -0.32791
-1.30761 -0.94094 -0.32791
-1.30835 -0.93991 -0.32791
-1.30909 -0.93888 -0.32792
-1.30903 -0.93727 -0.32772
-1.31057 -0.93681 -0.32792
-1.31131 -0.93577 -0.32792
-1.31042 -0.93358 -0.32770
-1.31116 -0.93255 -0.32770
-1.31266 -0.93206 -0.32808
-1.31342 -0.93104 -0.32791
-1.31336 -0.92944 -0.32771
-1.31566 -0.92951 -0.32829
-1.31642 -0.92849 -0.32812
-1.31552 -0.92631 -0.32789
-1.31545 -0.92471 -0.32770
-1.31618 -0.92367 -0.32770
-1.31611 -0.92207 -0.32750
-1.31523 -0.91990 -0.32711
-1.31675 -0.91943 -0.32731
-1.31831 -0.91897 -0.32734
-1.31662 -0.91625 -0.32674
-1.31735 -0.91521 -0.32675
-1.32048 -0.91584 -0.32735
-1.31297 -0.90604 -0.32496
-1.32482 -0.88671 -0.32516
-1.32784 -0.88571 -0.32556
-1.32854 -0.88466 -0.32557
-1.33087 -0.88470 -0.32597
-1.33238 -0.88419 -0.32617
-1.33229 -0.88261 -0.32580
-1.33299 -0.88156 -0.32581
-1.33368 -0.88051 -0.32581
-1.33274 -0.87838 -0.32541
-1.33343 -0.87733 -0.32542
-1.33497 -0.87683 -0.32545
-1.33566 -0.87578 -0.32545
-1.33717 -0.87526 -0.32565
-1.33786 -0.87421 -0.32566
-1.33858 -0.87317 -0.32549
-1.33842 -0.87156 -0.32546
-1.33910 -0.87050 -0.32547
-1.33897 -0.86891 -0.32527
-1.33965 -0.86785 -0.32527
-1.34034 -0.86680 -0.32527
-1.34102 -0.86574 -0.32528
-1.34088 -0.86415 -0.32508
-1.34073 -0.86256 -0.32488
-1.34141 -0.86150 -0.32489
-1.34289 -0.86095 -0.32526
-1.34357 -0.85989 -0.32526
-1.34507 -0.85936 -0.32547
-1.35233 -0.86250 -0.32724
-1.33895 -0.85248 -0.32384
-1.33715 -0.84985 -0.32325
-1.34081 -0.84773 -0.32366
-1.34317 -0.83300 -0.32215
-1.34514 -0.82981 -0.32216
-1.34493 -0.82822 -0.32213
-1.35625 -0.83225 -0.32454
-1.35273 -0.82862 -0.32354
-1.35338 -0.82755 -0.32354
-1.35735 -0.82851 -0.32451
-1.35717 -0.82693 -0.32432
-1.35617 -0.82485 -0.32375
-1.35682 -0.82378 -0.32375
-1.35828 -0.82320 -0.32413
-1.35977 -0.82264 -0.32433
-1.35957 -0.82106 -0.32413
-1.35938 -0.81948 -0.32394
-1.36003 -0.81841 -0.32394
-1.36067 -0.81733 -0.32394
-1.36132 -0.81626 -0.32394
-1.36196 -0.81518 -0.32395
-1.36260 -0.81411 -0.32395
-1.36324 -0.81303 -0.32395
-1.36304 -0.81146 -0.32376
-1.36371 -0.81040 -0.32359
-1.36519 -0.80982 -0.32379
-1.36667 -0.80924 -0.32399
-1.36731 -0.80817 -0.32400
-1.36713 -0.80661 -0.32363
-1.36608 -0.80453 -0.32323
-1.36584 -0.80294 -0.32321
-1.36734 -0.80238 -0.32324
-1.37812 -0.80724 -0.32564
-1.36247 -0.79519 -0.32165
-1.36369 -0.79302 -0.32183
-1.36431 -0.79194 -0.32183
-1.36833 -0.79283 -0.32263
-1.36980 -0.79224 -0.32283
-1.36615 -0.78869 -0.32201
-1.36508 -0.78664 -0.32161
-1.36827 -0.78704 -0.32204
-1.37311 -0.78838 -0.32322
-1.37203 -0.78633 -0.32282
-1.36925 -0.78330 -0.32202
-1.36987 -0.78222 -0.32202
-1.37134 -0.78162 -0.32223
-1.36940 -0.77909 -0.32163
-1.36916 -0.77752 -0.32143
-1.36868 -0.77439 -0.32104
-1.36929 -0.77331 -0.32104
-1.38160 -0.77740 -0.32365
-1.37541 -0.77249 -0.32188
-1.37602 -0.77140 -0.32188
-1.37919 -0.77175 -0.32249
-1.38066 -0.77114 -0.32269
-1.38041 -0.76957 -0.32249
-1.38104 -0.76850 -0.32233
-1.38248 -0.76787 -0.32270
-1.38051 -0.76535 -0.32210
-1.38108 -0.76425 -0.32227
-1.38257 -0.76365 -0.32231
-1.38317 -0.76256 -0.32231
-1.38374 -0.76145 -0.32248
-1.38434 -0.76036 -0.32249
-1.38494 -0.75926 -0.32249
-1.38554 -0.75817 -0.32249
-1.38611 -0.75706 -0.32266
-1.38670 -0.75597 -0.32267
-1.38816 -0.75534 -0.32287
-1.38792 -0.75379 -0.32250
-1.38676 -0.75175 -0.32227
-1.38736 -0.75065 -0.32228
-1.38881 -0.75002 -0.32248
-1.38854 -0.74846 -0.32228
-1.38913 -0.74737 -0.32229
-1.38971 -0.74628 -0.32229
-1.39375 -0.74704 -0.32309
-1.38890 -0.74163 -0.32153
-1.38603 -0.73869 -0.32073
-1.38661 -0.73761 -0.32073
-1.38981 -0.73791 -0.32117
-1.39126 -0.73728 -0.32137
-1.39183 -0.73618 -0.32138
-1.39241 -0.73509 -0.32138
-1.39212 -0.73354 -0.32118
-1.39183 -0.73199 -0.32099
-1.39157 -0.73046 -0.32062
-1.39301 -0.72982 -0.32082
-1.39355 -0.72871 -0.32099
-1.39238 -0.72670 -0.32060
-1.39121 -0.72471 -0.32020
-1.39178 -0.72361 -0.32020
-1.39322 -0.72297 -0.32040
-1.39463 -0.72231 -0.32078
-1.39519 -0.72121 -0.32078
-1.39402 -0.71922 -0.32038
-1.39371 -0.71767 -0.32018
-1.40352 -0.71994 -0.32236
-1.40147 -0.71750 -0.32176
-1.40119 -0.71597 -0.32140
-1.40175 -0.71486 -0.32140
-1.40228 -0.71375 -0.32157
-1.40200 -0.71222 -0.32121
-1.40343 -0.71156 -0.32141
-1.40396 -0.71044 -0.32158
-1.40455 -0.70935 -0.32142
-1.40598 -0.70869 -0.32162
-1.40741 -0.70803 -0.32182
-1.40709 -0.70648 -0.32162
-1.40764 -0.70537 -0.32163
-1.40907 -0.70471 -0.32183
-1.38157 -0.68960 -0.31543
-1.32533 -0.98089 -0.33740
-1.29776 -0.95891 -0.33001
-1.29691 -0.95671 -0.32979
-1.29924 -0.95685 -0.33019
-1.29999 -0.95583 -0.33019
-1.30074 -0.95481 -0.33020
-1.30149 -0.95378 -0.33020
-1.30224 -0.95276 -0.33020
-1.30296 -0.95171 -0.33038
-1.30371 -0.95068 -0.33038
-1.30443 -0.94963 -0.33056
-1.30442 -0.94805 -0.33019
-1.30437 -0.94644 -0.32999
-1.30512 -0.94541 -0.32999
-1.30586 -0.94438 -0.32999
-1.30581 -0.94278 -0.32980
-1.30496 -0.94060 -0.32940
-1.30730 -0.94071 -0.32980
-1.30804 -0.93968 -0.32981
-1.30878 -0.93865 -0.32981
-1.30872 -0.93705 -0.32961
-1.30949 -0.93603 -0.32944
-1.31022 -0.93500 -0.32945
-1.30939 -0.93285 -0.32888
-1.31093 -0.93238 -0.32908
-1.31166 -0.93135 -0.32908
-1.31160 -0.92975 -0.32888
-1.31233 -0.92871 -0.32889
-1.31306 -0.92768 -0.32889
-1.31379 -0.92664 -0.32889
-1.31452 -0.92560 -0.32890
-1.31525 -0.92456 -0.32890
-1.31598 -0.92353 -0.32890
-1.31671 -0.92249 -0.32891
-1.31743 -0.92145 -0.32891
-1.31733 -0.91983 -0.32888
-1.31725 -0.91823 -0.32869
-1.31717 -0.91663 -0.32849
-1.31789 -0.91559 -0.32849
-1.31781 -0.91399 -0.32829
-1.32169 -0.91514 -0.32944
-1.31581 -0.90647 -0.32727
-1.32066 -0.88544 -0.32554
-1.32927 -0.88666 -0.32716
-1.32752 -0.88398 -0.32656
-1.32982 -0.88400 -0.32714
-1.33134 -0.88349 -0.32734
-1.33203 -0.88244 -0.32734
-1.33354 -0.88193 -0.32754
-1.33421 -0.88086 -0.32772
-1.33411 -0.87928 -0.32735
-1.33314 -0.87713 -0.32712
-1.33383 -0.87608 -0.32713
-1.33534 -0.87557 -0.32733
-1.33603 -0.87451 -0.32733
-1.33757 -0.87401 -0.32737
-1.33826 -0.87296 -0.32737
-1.33730 -0.87083 -0.32697
-1.33799 -0.86978 -0.32697
-1.33868 -0.86872 -0.32698
-1.33857 -0.86715 -0.32661
-1.34004 -0.86661 -0.32698
-1.34076 -0.86557 -0.32681
-1.34061 -0.86398 -0.32662
-1.34129 -0.86292 -0.32662
-1.34197 -0.86186 -0.32662
-1.34186 -0.86029 -0.32625
-1.34254 -0.85923 -0.32626
-1.34486 -0.85923 -0.32666
-1.33780 -0.85026 -0.32446
-1.34060 -0.84760 -0.32484
-1.34293 -0.84759 -0.32525
-1.34552 -0.83592 -0.32481
-1.34870 -0.83643 -0.32525
-1.34234 -0.82809 -0.32325
-1.35351 -0.83056 -0.32530
-1.35079 -0.82743 -0.32466
-1.35231 -0.82689 -0.32470
-1.35463 -0.82685 -0.32510
-1.35693 -0.82678 -0.32568
-1.35593 -0.82471 -0.32511
-1.35658 -0.82364 -0.32511
-1.35807 -0.82308 -0.32532
-1.35956 -0.82251 -0.32552
-1.35853 -0.82043 -0.32512
-1.35834 -0.81885 -0.32492
-1.35895 -0.81776 -0.32510
-1.36043 -0.81719 -0.32530
-1.36108 -0.81612 -0.32530
-1.36088 -0.81454 -0.32510
-1.36236 -0.81397 -0.32531
-1.36300 -0.81289 -0.32531
-1.36193 -0.81080 -0.32508
-1.36341 -0.81022 -0.32529
-1.36573 -0.81015 -0.32569
-1.36637 -0.80907 -0.32569
-1.36617 -0.80749 -0.32550
-1.36427 -0.80492 -0.32490
-1.36491 -0.80384 -0.32490
-1.36554 -0.80276 -0.32490
-1.36955 -0.80367 -0.32571
-1.36386 -0.79600 -0.32374
-1.36662 -0.79328 -0.32378
-1.36467 -0.79071 -0.32335
-1.36340 -0.78710 -0.32259
-1.36657 -0.78749 -0.32319
-1.36976 -0.78790 -0.32363
-1.36781 -0.78534 -0.32320
-1.36842 -0.78426 -0.32320
-1.36904 -0.78318 -0.32320
-1.36969 -0.78211 -0.32304
-1.37027 -0.78102 -0.32321
-1.36833 -0.77848 -0.32261
-1.36844 -0.77426 -0.32238
-1.37161 -0.77462 -0.32299
-1.37450 -0.77340 -0.32357
-1.37511 -0.77232 -0.32357
-1.37743 -0.77219 -0.32397
-1.37975 -0.77206 -0.32438
-1.37953 -0.77051 -0.32401
-1.37754 -0.76797 -0.32358
-1.37900 -0.76736 -0.32378
-1.38132 -0.76723 -0.32419
-1.38192 -0.76614 -0.32419
-1.38170 -0.76459 -0.32383
-1.38230 -0.76350 -0.32383
-1.38293 -0.76242 -0.32366
-1.38264 -0.76084 -0.32363
-1.38413 -0.76024 -0.32367
-1.38473 -0.75915 -0.32367
-1.38530 -0.75804 -0.32384
-1.38506 -0.75649 -0.32348
-1.38649 -0.75585 -0.32385
-1.38709 -0.75476 -0.32385
-1.38682 -0.75319 -0.32365
-1.38827 -0.75257 -0.32386
-1.38973 -0.75194 -0.32406
-1.38946 -0.75038 -0.32386
-1.38832 -0.74835 -0.32347
-1.38888 -0.74724 -0.32364
-1.38950 -0.74616 -0.32347
-1.39527 -0.74785 -0.32468
-1.38690 -0.74056 -0.32264
-1.38918 -0.74038 -0.32322
-1.38979 -0.73930 -0.32305
-1.38602 -0.73589 -0.32222
-1.38573 -0.73435 -0.32202
-1.38630 -0.73326 -0.32202
-1.38601 -0.73171 -0.32182
-1.38922 -0.73201 -0.32226
-1.39326 -0.73274 -0.32307
-1.39210 -0.73074 -0.32267
-1.38920 -0.72782 -0.32187
-1.39151 -0.72764 -0.32227
-1.39384 -0.72747 -0.32251
-1.39268 -0.72547 -0.32211
-1.39325 -0.72437 -0.32211
-1.39381 -0.72328 -0.32212
-1.39438 -0.72218 -0.32212
-1.39498 -0.72110 -0.32195
-1.39554 -0.72001 -0.32196
-1.39347 -0.71755 -0.32153
-1.39985 -0.71806 -0.32257
-1.39864 -0.71605 -0.32234
-1.40007 -0.71539 -0.32254
-1.40151 -0.71474 -0.32275
-1.40294 -0.71408 -0.32295
-1.40263 -0.71254 -0.32275
-1.40231 -0.71099 -0.32255
-1.40287 -0.70989 -0.32256
-1.40427 -0.70921 -0.32293
-1.40570 -0.70855 -0.32313
-1.40622 -0.70743 -0.32330
-1.40506 -0.70546 -0.32274
-1.40561 -0.70436 -0.32274
-1.40876 -0.70455 -0.32351
-1.40496 -0.70127 -0.32234
-1.38184 -0.68837 -0.31692
-1.31720 -0.97487 -0.33697
-1.29669 -0.95812 -0.33154
-1.29666 -0.95652 -0.33134
-1.29898 -0.95666 -0.33174
-1.30049 -0.95620 -0.33212
-1.30127 -0.95520 -0.33195
-1.30123 -0.95360 -0.33175
-1.30119 -0.95199 -0.33155
-1.30036 -0.94981 -0.33115
-1.30187 -0.94934 -0.33153
-1.30262 -0.94831 -0.33153
-1.30260 -0.94673 -0.33116
-1.30332 -0.94568 -0.33134
-1.30486 -0.94522 -0.33154
-1.30640 -0.94477 -0.33175
-1.30555 -0.94259 -0.33135
-1.30547 -0.94097 -0.33132
-1.30701 -0.94051 -0.33153
-1.30775 -0.93948 -0.33153
-1.30690 -0.93730 -0.33113
-1.30764 -0.93627 -0.33113
-1.30837 -0.93524 -0.33113
-1.30831 -0.93364 -0.33094
-1.30905 -0.93260 -0.33094
-1.30978 -0.93157 -0.33094
-1.31132 -0.93110 -0.33115
-1.31125 -0.92950 -0.33095
-1.31118 -0.92790 -0.33075
-1.31192 -0.92687 -0.33075
-1.31347 -0.92642 -0.33078
-1.31420 -0.92538 -0.33079
-1.31253 -0.92265 -0.33019
-1.31326 -0.92162 -0.33019
-1.31562 -0.92172 -0.33042
-1.31715 -0.92125 -0.33063
-1.31707 -0.91965 -0.33043
-1.31619 -0.91749 -0.33003
-1.31610 -0.91589 -0.32983
-1.31683 -0.91485 -0.32983
-1.31755 -0.91381 -0.32984
-1.32310 -0.91611 -0.33105
-1.31245 -0.90568 -0.32803
-1.32121 -0.88581 -0.32728
-1.32898 -0.88646 -0.32887
-1.32805 -0.88433 -0.32847
-1.32874 -0.88328 -0.32847
-1.33110 -0.88334 -0.32871
-1.33177 -0.88227 -0.32888
-1.33246 -0.88121 -0.32888
-1.33316 -0.88016 -0.32888
-1.33222 -0.87803 -0.32849
-1.33291 -0.87698 -0.32849
-1.33524 -0.87700 -0.32889
-1.33590 -0.87593 -0.32907
-1.33495 -0.87380 -0.32867
-1.33482 -0.87221 -0.32847
-1.33550 -0.87116 -0.32847
-1.33619 -0.87011 -0.32848
-1.33688 -0.86905 -0.32848
-1.33753 -0.86798 -0.32865
-1.33821 -0.86692 -0.32865
-1.33890 -0.86587 -0.32866
-1.33876 -0.86428 -0.32846
-1.33944 -0.86322 -0.32846
-1.33932 -0.86165 -0.32809
-1.33918 -0.86007 -0.32789
-1.33986 -0.85901 -0.32790
-1.34136 -0.85848 -0.32810
-1.34368 -0.85847 -0.32851
-1.33913 -0.85111 -0.32673
-1.34231 -0.84424 -0.32655
-1.34511 -0.83420 -0.32597
-1.34535 -0.82995 -0.32591
-1.35148 -0.82932 -0.32693
-1.35133 -0.82776 -0.32656
-1.35365 -0.82772 -0.32697
-1.35598 -0.82767 -0.32737
-1.35663 -0.82660 -0.32738
-1.35561 -0.82451 -0.32698
-1.35626 -0.82344 -0.32698
-1.35691 -0.82237 -0.32698
-1.35674 -0.82081 -0.32661
-1.35736 -0.81972 -0.32679
-1.35804 -0.81867 -0.32662
-1.35868 -0.81760 -0.32662
-1.35849 -0.81602 -0.32642
-1.36000 -0.81547 -0.32646
-1.36061 -0.81438 -0.32663
-1.36125 -0.81330 -0.32663
-1.36102 -0.81171 -0.32660
-1.36166 -0.81064 -0.32661
-1.36317 -0.81008 -0.32664
-1.36465 -0.80950 -0.32685
-1.36357 -0.80741 -0.32662
-1.36421 -0.80633 -0.32662
-1.36485 -0.80526 -0.32662
-1.36464 -0.80368 -0.32642
-1.36524 -0.80259 -0.32660
-1.36756 -0.80250 -0.32700
-1.37918 -0.80786 -0.32963
-1.36353 -0.79581 -0.32560
-1.36585 -0.79572 -0.32600
-1.36118 -0.79012 -0.32460
-1.36180 -0.78904 -0.32460
-1.36558 -0.78836 -0.32521
-1.36536 -0.78680 -0.32501
-1.36686 -0.78622 -0.32505
-1.36832 -0.78563 -0.32525
-1.36809 -0.78407 -0.32505
-1.36704 -0.78203 -0.32449
-1.37082 -0.78133 -0.32510
-1.37059 -0.77976 -0.32490
-1.36950 -0.77771 -0.32450
-1.36817 -0.77411 -0.32390
-1.37304 -0.77543 -0.32491
-1.37597 -0.77423 -0.32532
-1.37487 -0.77218 -0.32492
-1.37719 -0.77205 -0.32532
-1.37865 -0.77145 -0.32553
-1.37926 -0.77036 -0.32553
-1.37901 -0.76879 -0.32533
-1.38041 -0.76815 -0.32588
-1.38190 -0.76755 -0.32591
-1.38247 -0.76644 -0.32608
-1.38219 -0.76486 -0.32605
-1.38108 -0.76282 -0.32565
-1.38085 -0.76128 -0.32528
-1.38317 -0.76113 -0.32569
-1.38377 -0.76004 -0.32570
-1.38265 -0.75801 -0.32529
-1.38324 -0.75691 -0.32530
-1.38556 -0.75676 -0.32570
-1.38701 -0.75614 -0.32591
-1.38592 -0.75412 -0.32534
-1.38565 -0.75256 -0.32514
-1.38625 -0.75147 -0.32514
-1.38770 -0.75084 -0.32535
-1.38915 -0.75021 -0.32555
-1.38802 -0.74818 -0.32515
-1.38688 -0.74616 -0.32475
-1.38747 -0.74507 -0.32475
-1.39151 -0.74583 -0.32556
-1.38663 -0.74041 -0.32416
-1.38548 -0.73840 -0.32376
-1.38606 -0.73731 -0.32376
-1.38404 -0.73485 -0.32316
-1.38459 -0.73374 -0.32333
-1.38689 -0.73357 -0.32373
-1.38660 -0.73202 -0.32353
-1.38631 -0.73048 -0.32333
-1.38948 -0.73076 -0.32394
-1.39263 -0.73101 -0.32472
-1.39407 -0.73037 -0.32493
-1.38946 -0.72657 -0.32355
-1.38830 -0.72457 -0.32315
-1.38884 -0.72347 -0.32332
-1.39027 -0.72283 -0.32352
-1.39348 -0.72310 -0.32396
-1.39578 -0.72291 -0.32437
-1.39548 -0.72136 -0.32417
-1.39169 -0.71802 -0.32316
-1.39052 -0.71603 -0.32276
-1.40122 -0.71876 -0.32499
-1.39920 -0.71634 -0.32422
-1.39976 -0.71524 -0.32422
-1.40120 -0.71458 -0.32443
-1.40266 -0.71394 -0.32447
-1.40232 -0.71238 -0.32443
-1.40375 -0.71172 -0.32464
-1.40434 -0.71063 -0.32447
-1.40402 -0.70909 -0.32427
-1.40545 -0.70842 -0.32448
-1.40685 -0.70774 -0.32485
-1.40566 -0.70576 -0.32445
-1.40533 -0.70422 -0.32425
-1.40764 -0.70399 -0.32466
-1.40553 -0.70156 -0.32422
-1.62417 -1.32274 -0.43329
-1.60014 -1.30108 -0.42661
-1.58112 -1.27944 -0.42075
-1.30032 -0.96238 -0.33482
-1.29477 -0.95670 -0.33320
-1.29550 -0.95566 -0.33337
-1.29864 -0.95641 -0.33381
-1.29939 -0.95539 -0.33382
-1.30014 -0.95437 -0.33382
-1.29934 -0.95221 -0.33325
-1.29930 -0.95060 -0.33304
-1.30081 -0.95013 -0.33342
-1.30076 -0.94853 -0.33322
-1.30230 -0.94808 -0.33343
-1.30384 -0.94763 -0.33364
-1.30380 -0.94602 -0.33343
-1.30296 -0.94385 -0.33303
-1.30370 -0.94282 -0.33304
-1.30365 -0.94122 -0.33284
-1.30357 -0.93959 -0.33281
-1.30510 -0.93914 -0.33301
-1.30664 -0.93868 -0.33322
-1.30578 -0.93650 -0.33282
-1.30652 -0.93547 -0.33282
-1.30726 -0.93444 -0.33282
-1.30879 -0.93398 -0.33303
-1.30870 -0.93236 -0.33300
-1.30864 -0.93076 -0.33280
-1.30778 -0.92859 -0.33240
-1.30931 -0.92812 -0.33260
-1.31087 -0.92768 -0.33264
-1.31160 -0.92664 -0.33264
-1.31153 -0.92504 -0.33244
-1.31145 -0.92344 -0.33224
-1.31298 -0.92297 -0.33245
-1.31531 -0.92306 -0.33286
-1.31524 -0.92146 -0.33266
-1.31356 -0.91874 -0.33205
-1.31508 -0.91826 -0.33226
-1.31584 -0.91724 -0.33209
-1.31576 -0.91565 -0.33189
-1.31567 -0.91405 -0.33169
-1.31723 -0.91359 -0.33172
-1.32758 -0.91922 -0.33433
-1.31544 -0.90928 -0.33092
-1.31697 -0.90880 -0.33112
-1.31666 -0.90399 -0.33070
-1.32114 -0.89030 -0.33026
-1.32490 -0.88828 -0.33050
-1.32700 -0.88514 -0.33051
-1.32688 -0.88355 -0.33031
-1.32839 -0.88305 -0.33052
-1.32990 -0.88254 -0.33072
-1.33142 -0.88203 -0.33093
-1.33214 -0.88100 -0.33076
-1.33280 -0.87993 -0.33093
-1.33189 -0.87782 -0.33036
-1.33177 -0.87623 -0.33016
-1.33243 -0.87516 -0.33033
-1.33393 -0.87464 -0.33054
-1.33462 -0.87359 -0.33054
-1.33531 -0.87254 -0.33055
-1.33518 -0.87095 -0.33035
-1.33504 -0.86936 -0.33015
-1.33573 -0.86831 -0.33015
-1.33723 -0.86779 -0.33036
-1.33789 -0.86671 -0.33053
-1.33775 -0.86512 -0.33033
-1.33843 -0.86407 -0.33033
-1.33908 -0.86299 -0.33051
-1.33979 -0.86195 -0.33034
-1.33882 -0.85984 -0.32993
-1.34029 -0.85929 -0.33031
-1.34183 -0.85878 -0.33035
-1.34415 -0.85877 -0.33076
-1.33725 -0.85139 -0.32873
-1.33874 -0.85086 -0.32894
-1.33928 -0.84824 -0.32857
-1.34412 -0.83506 -0.32782
-1.34309 -0.83295 -0.32759
-1.34755 -0.83131 -0.32821
-1.35199 -0.82963 -0.32900
-1.35181 -0.82805 -0.32880
-1.35329 -0.82750 -0.32900
-1.35395 -0.82643 -0.32901
-1.35460 -0.82536 -0.32901
-1.35525 -0.82429 -0.32901
-1.35590 -0.82322 -0.32902
-1.35571 -0.82164 -0.32882
-1.35635 -0.82057 -0.32882
-1.35700 -0.81950 -0.32882
-1.35681 -0.81793 -0.32862
-1.35832 -0.81738 -0.32866
-1.35977 -0.81679 -0.32903
-1.36045 -0.81574 -0.32887
-1.36109 -0.81466 -0.32887
-1.36173 -0.81359 -0.32887
-1.36153 -0.81201 -0.32867
-1.36133 -0.81044 -0.32847
-1.36113 -0.80886 -0.32827
-1.36176 -0.80779 -0.32827
-1.36240 -0.80671 -0.32828
-1.36385 -0.80612 -0.32865
-1.36448 -0.80504 -0.32866
-1.36430 -0.80349 -0.32829
-1.36494 -0.80241 -0.32829
-1.36807 -0.80280 -0.32907
-1.36088 -0.79570 -0.32704
-1.36066 -0.79413 -0.32684
-1.36335 -0.79138 -0.32723
-1.36630 -0.79021 -0.32764
-1.36522 -0.78816 -0.32723
-1.36901 -0.78746 -0.32785
-1.36963 -0.78638 -0.32785
-1.36855 -0.78433 -0.32745
-1.36832 -0.78276 -0.32725
-1.36958 -0.78062 -0.32709
-1.36934 -0.77906 -0.32689
-1.37316 -0.77836 -0.32733
-1.37036 -0.77535 -0.32652
-1.37560 -0.77402 -0.32734
-1.37450 -0.77198 -0.32694
-1.37597 -0.77137 -0.32715
-1.37828 -0.77124 -0.32756
-1.37889 -0.77015 -0.32756
-1.37864 -0.76859 -0.32736
-1.38007 -0.76796 -0.32773
-1.37985 -0.76641 -0.32737
-1.37874 -0.76437 -0.32696
-1.37934 -0.76328 -0.32697
-1.38077 -0.76265 -0.32734
-1.38048 -0.76107 -0.32731
-1.38111 -0.76000 -0.32714
-1.38168 -0.75889 -0.32731
-1.38225 -0.75779 -0.32749
-1.38285 -0.75670 -0.32749
-1.38433 -0.75609 -0.32753
-1.38665 -0.75594 -0.32794
-1.38638 -0.75437 -0.32773
-1.38529 -0.75236 -0.32716
-1.38502 -0.75080 -0.32696
-1.38647 -0.75017 -0.32717
-1.38706 -0.74908 -0.32717
-1.38762 -0.74797 -0.32734
-1.38824 -0.74689 -0.32718
-1.39055 -0.74672 -0.32759
-1.39545 -0.74794 -0.32861
-1.38540 -0.73976 -0.32597
-1.38341 -0.73730 -0.32520
-1.38226 -0.73530 -0.32479
-1.38630 -0.73605 -0.32561
-1.38858 -0.73586 -0.32619
-1.39002 -0.73522 -0.32639
-1.38889 -0.73323 -0.32582
-1.38944 -0.73213 -0.32599
-1.38998 -0.73102 -0.32616
-1.38972 -0.72949 -0.32579
-1.39029 -0.72839 -0.32580
-1.39083 -0.72728 -0.32597
-1.38963 -0.72527 -0.32573
-1.38850 -0.72329 -0.32516
-1.38993 -0.72265 -0.32537
-1.39134 -0.72199 -0.32574
-1.39277 -0.72135 -0.32595
-1.39250 -0.71982 -0.32558
-1.39216 -0.71826 -0.32554
-1.39360 -0.71762 -0.32575
-1.39908 -0.71766 -0.32677
-1.39790 -0.71567 -0.32637
-1.39849 -0.71459 -0.32621
-1.40079 -0.71438 -0.32661
-1.40223 -0.71372 -0.32682
-1.40279 -0.71262 -0.32682
-1.40250 -0.71109 -0.32646
-1.40306 -0.70999 -0.32646
-1.40446 -0.70931 -0.32683
-1.40592 -0.70866 -0.32687
-1.40473 -0.70668 -0.32647
-1.40269 -0.70427 -0.32569
-1.40321 -0.70315 -0.32586
-1.40726 -0.70380 -0.32668
-1.39818 -0.69789 -0.32445
-1.68927 -1.44557 -0.46275
-1.68817 -1.44234 -0.46215
-1.70063 -1.42318 -0.46111
-1.70400 -1.42373 -0.46173
-1.71605 -1.40430 -0.46188
-1.72018 -1.40543 -0.46270
-1.72284 -1.40535 -0.46288
-1.72318 -1.40338 -0.46268
-1.72277 -1.40079 -0.46227
-1.72390 -1.39946 -0.46204
-1.72572 -1.39870 -0.46249
-1.72834 -1.39857 -0.46290
-1.72795 -1.39601 -0.46226
-1.72676 -1.39281 -0.46165
-1.72633 -1.39023 -0.46125
-1.72437 -1.38642 -0.46044
-1.72164 -1.38200 -0.45942
-1.29915 -0.95993 -0.33649
-1.29597 -0.95601 -0.33547
-1.29751 -0.95557 -0.33568
-1.29904 -0.95513 -0.33589
-1.29900 -0.95353 -0.33569
-1.29896 -0.95193 -0.33548
-1.29974 -0.95093 -0.33531
-1.29970 -0.94933 -0.33511
-1.30045 -0.94830 -0.33512
-1.30198 -0.94785 -0.33532
-1.30273 -0.94682 -0.33533
-1.30269 -0.94522 -0.33513
-1.30343 -0.94419 -0.33513
-1.30497 -0.94373 -0.33534
-1.30571 -0.94271 -0.33534
-1.30563 -0.94108 -0.33531
-1.30478 -0.93891 -0.33491
-1.30473 -0.93731 -0.33470
-1.30547 -0.93627 -0.33471
-1.30620 -0.93524 -0.33471
-1.30691 -0.93419 -0.33488
-1.30685 -0.93259 -0.33468
-1.30759 -0.93156 -0.33469
-1.30672 -0.92939 -0.33428
-1.30666 -0.92780 -0.33408
-1.30739 -0.92676 -0.33408
-1.30892 -0.92630 -0.33429
-1.30885 -0.92470 -0.33409
-1.30958 -0.92367 -0.33409
-1.31030 -0.92263 -0.33409
-1.31103 -0.92160 -0.33410
-1.31176 -0.92056 -0.33410
-1.31251 -0.91955 -0.33393
-1.31324 -0.91851 -0.33394
-1.31396 -0.91748 -0.33394
-1.31468 -0.91644 -0.33394
-1.31460 -0.91484 -0.33374
-1.31455 -0.91327 -0.33337
-1.31688 -0.91334 -0.33378
-1.32079 -0.91451 -0.33477
-1.31829 -0.91124 -0.33396
-1.31581 -0.90800 -0.33297
-1.31491 -0.90585 -0.33257
-1.31643 -0.90537 -0.33277
-1.31634 -0.90377 -0.33257
-1.31463 -0.90107 -0.33197
-1.31534 -0.90004 -0.33197
-1.31847 -0.90065 -0.33258
-1.31999 -0.90017 -0.33279
-1.31827 -0.89747 -0.33218
-1.31976 -0.89696 -0.33256
-1.32206 -0.89700 -0.33314
-1.31952 -0.89376 -0.33233
-1.32104 -0.89326 -0.33253
-1.32255 -0.89277 -0.33274
-1.32244 -0.89118 -0.33254
-1.32396 -0.89068 -0.33275
-1.32303 -0.88855 -0.33234
-1.32130 -0.88587 -0.33173
-1.32525 -0.88700 -0.33255
-1.33005 -0.88869 -0.33341
-1.32423 -0.88330 -0.33177
-1.32493 -0.88225 -0.33178
-1.32725 -0.88229 -0.33219
-1.33039 -0.88287 -0.33280
-1.33109 -0.88182 -0.33281
-1.33181 -0.88079 -0.33264
-1.33166 -0.87918 -0.33261
-1.33075 -0.87707 -0.33203
-1.33141 -0.87600 -0.33221
-1.33292 -0.87548 -0.33241
-1.33279 -0.87389 -0.33221
-1.33266 -0.87231 -0.33201
-1.33417 -0.87179 -0.33222
-1.33488 -0.87076 -0.33205
-1.33472 -0.86915 -0.33202
-1.33376 -0.86703 -0.33162
-1.33773 -0.86811 -0.33243
-1.33838 -0.86703 -0.33261
-1.33824 -0.86544 -0.33241
-1.33810 -0.86386 -0.33221
-1.33878 -0.86280 -0.33221
-1.33946 -0.86174 -0.33221
-1.33850 -0.85963 -0.33181
-1.33749 -0.85750 -0.33157
-1.33902 -0.85699 -0.33161
-1.34547 -0.85962 -0.33304
-1.33854 -0.85222 -0.33117
-1.34089 -0.85223 -0.33142
-1.33546 -0.84435 -0.32959
-1.33698 -0.84383 -0.32963
-1.34245 -0.84433 -0.33065
-1.34146 -0.84223 -0.33025
-1.34296 -0.83434 -0.32948
-1.34612 -0.83482 -0.33010
-1.34490 -0.83114 -0.32966
-1.34472 -0.82956 -0.32946
-1.35354 -0.83205 -0.33130
-1.35166 -0.82943 -0.33086
-1.35148 -0.82785 -0.33066
-1.35213 -0.82678 -0.33066
-1.35278 -0.82572 -0.33067
-1.35343 -0.82465 -0.33067
-1.35405 -0.82356 -0.33084
-1.35473 -0.82251 -0.33068
-1.35454 -0.82093 -0.33048
-1.35519 -0.81987 -0.33048
-1.35583 -0.81880 -0.33048
-1.35648 -0.81773 -0.33048
-1.35796 -0.81716 -0.33069
-1.35776 -0.81559 -0.33049
-1.35841 -0.81451 -0.33049
-1.35905 -0.81344 -0.33050
-1.36053 -0.81287 -0.33070
-1.36117 -0.81180 -0.33071
-1.36100 -0.81024 -0.33033
-1.36079 -0.80867 -0.33013
-1.36143 -0.80759 -0.33014
-1.36375 -0.80751 -0.33055
-1.36439 -0.80644 -0.33055
-1.36331 -0.80435 -0.33032
-1.36144 -0.80180 -0.32954
-1.36288 -0.80120 -0.32991
-1.37027 -0.80409 -0.33155
-1.36055 -0.79551 -0.32890
-1.36118 -0.79443 -0.32890
-1.36136 -0.79022 -0.32850
-1.36198 -0.78915 -0.32851
-1.36234 -0.78649 -0.32848
-1.36551 -0.78688 -0.32909
-1.36613 -0.78581 -0.32910
-1.36675 -0.78473 -0.32910
-1.36482 -0.78219 -0.32849
-1.36458 -0.78063 -0.32829
-1.36775 -0.78101 -0.32890
-1.37265 -0.78237 -0.32976
-1.37326 -0.78128 -0.32976
-1.37047 -0.77827 -0.32895
-1.37023 -0.77670 -0.32875
-1.36914 -0.77466 -0.32834
-1.37612 -0.77431 -0.32941
-1.37587 -0.77275 -0.32920
-1.37563 -0.77118 -0.32900
-1.37538 -0.76962 -0.32880
-1.37684 -0.76901 -0.32901
-1.37830 -0.76840 -0.32922
-1.37805 -0.76684 -0.32902
-1.37951 -0.76622 -0.32922
-1.38012 -0.76514 -0.32922
-1.37901 -0.76310 -0.32882
-1.37872 -0.76152 -0.32879
-1.37932 -0.76043 -0.32879
-1.38078 -0.75982 -0.32900
-1.38137 -0.75872 -0.32900
-1.38197 -0.75763 -0.32900
-1.38254 -0.75653 -0.32917
-1.38313 -0.75544 -0.32918
-1.38373 -0.75435 -0.32918
-1.38432 -0.75325 -0.32918
-1.38492 -0.75216 -0.32919
-1.38551 -0.75107 -0.32919
-1.38610 -0.74997 -0.32919
-1.38669 -0.74888 -0.32920
-1.38642 -0.74732 -0.32899
-1.38618 -0.74578 -0.32862
-1.38849 -0.74562 -0.32904
-1.39597 -0.74823 -0.33067
-1.38333 -0.73865 -0.32741
-1.38304 -0.73711 -0.32721
-1.38708 -0.73786 -0.32803
-1.38939 -0.73769 -0.32844
-1.38997 -0.73659 -0.32844
-1.38708 -0.73367 -0.32763
-1.38593 -0.73167 -0.32722
-1.38823 -0.73149 -0.32763
-1.39051 -0.73129 -0.32821
-1.39108 -0.73020 -0.32822
-1.38992 -0.72820 -0.32781
-1.38789 -0.72575 -0.32720
-1.38585 -0.72330 -0.32659
-1.38816 -0.72311 -0.32700
-1.39220 -0.72383 -0.32782
-1.39277 -0.72273 -0.32782
-1.39072 -0.72029 -0.32721
-1.39387 -0.72053 -0.32800
-1.39443 -0.71943 -0.32800
-1.39239 -0.71699 -0.32739
-1.39208 -0.71545 -0.32719
-1.39786 -0.71704 -0.32842
-1.39581 -0.71460 -0.32781
-1.39724 -0.71395 -0.32802
-1.39958 -0.71376 -0.32826
-1.40188 -0.71354 -0.32867
-1.40070 -0.71156 -0.32827
-1.40126 -0.71046 -0.32827
-1.40184 -0.70937 -0.32810
-1.40153 -0.70783 -0.32790
-1.40208 -0.70673 -0.32791
-1.40351 -0.70606 -0.32811
-1.40406 -0.70496 -0.32812
-1.40462 -0.70386 -0.32812
-1.40692 -0.70363 -0.32853
-1.40046 -0.69903 -0.32690
-1.40452 -0.69967 -0.32772
-1.97218 -0.56104 -0.42986
-1.97733 -0.56082 -0.43089
-1.98158 -0.56033 -0.43150
-1.99328 -0.56195 -0.43418
-2.00974 -0.56487 -0.43767
-2.02432 -0.56725 -0.44076
-2.02665 -0.56618 -0.44117
-1.69045 -1.44659 -0.46506
-1.69010 -1.44399 -0.46466
-1.70558 -1.42733 -0.46444
-1.71658 -1.40473 -0.46351
-1.71609 -1.40208 -0.46358
-1.71874 -1.40200 -0.46376
-1.72474 -1.40239 -0.46479
-1.72204 -1.39795 -0.46377
-1.72165 -1.39540 -0.46313
-1.72579 -1.39651 -0.46395
-1.72536 -1.39392 -0.46354
-1.72569 -1.39195 -0.46334
-1.72678 -1.39059 -0.46335
-1.72864 -1.38985 -0.46356
-1.72820 -1.38727 -0.46315
-1.29895 -0.96137 -0.33807
-1.29659 -0.95804 -0.33708
-1.29655 -0.95644 -0.33688
-1.29806 -0.95598 -0.33726
-1.29884 -0.95498 -0.33709
-1.29959 -0.95396 -0.33709
-1.29955 -0.95236 -0.33689
-1.29951 -0.95076 -0.33669
-1.30026 -0.94973 -0.33670
-1.30180 -0.94928 -0.33690
-1.30334 -0.94883 -0.33711
-1.30250 -0.94665 -0.33670
-1.30166 -0.94447 -0.33630
-1.30158 -0.94285 -0.33627
-1.30391 -0.94297 -0.33668
-1.30545 -0.94251 -0.33689
-1.30622 -0.94151 -0.33672
-1.30614 -0.93988 -0.33669
-1.30449 -0.93714 -0.33608
-1.30444 -0.93554 -0.33588
-1.30517 -0.93451 -0.33588
-1.30432 -0.93234 -0.33547
-1.30585 -0.93188 -0.33568
-1.30735 -0.93139 -0.33606
-1.30649 -0.92923 -0.33565
-1.30642 -0.92763 -0.33545
-1.30716 -0.92660 -0.33545
-1.30868 -0.92613 -0.33566
-1.30941 -0.92510 -0.33566
-1.30934 -0.92350 -0.33546
-1.31010 -0.92249 -0.33530
-1.31160 -0.92200 -0.33567
-1.31313 -0.92152 -0.33588
-1.31308 -0.91995 -0.33551
-1.31300 -0.91835 -0.33531
-1.31373 -0.91731 -0.33531
-1.31448 -0.91629 -0.33514
-1.31440 -0.91470 -0.33494
-1.31512 -0.91366 -0.33494
-1.31587 -0.91264 -0.33477
-1.31656 -0.91158 -0.33495
-1.31647 -0.90999 -0.33475
-1.31638 -0.90839 -0.33454
-1.31710 -0.90735 -0.33455
-1.31781 -0.90631 -0.33455
-1.31449 -0.90250 -0.33353
-1.31682 -0.90257 -0.33394
-1.31833 -0.90209 -0.33415
-1.31902 -0.90103 -0.33432
-1.31973 -0.89999 -0.33433
-1.32044 -0.89894 -0.33433
-1.32030 -0.89733 -0.33430
-1.32104 -0.89631 -0.33413
-1.32172 -0.89524 -0.33431
-1.32323 -0.89475 -0.33451
-1.32313 -0.89316 -0.33431
-1.32143 -0.89049 -0.33353
-1.32291 -0.88998 -0.33391
-1.32361 -0.88893 -0.33391
-1.32353 -0.88736 -0.33354
-1.32423 -0.88632 -0.33354
-1.32737 -0.88690 -0.33416
-1.32481 -0.88368 -0.33334
-1.32469 -0.88209 -0.33314
-1.32623 -0.88161 -0.33318
-1.32689 -0.88054 -0.33335
-1.32759 -0.87950 -0.33335
-1.32910 -0.87899 -0.33356
-1.33227 -0.87958 -0.33401
-1.33215 -0.87799 -0.33381
-1.33120 -0.87586 -0.33340
-1.33271 -0.87535 -0.33361
-1.33337 -0.87427 -0.33378
-1.33406 -0.87322 -0.33378
-1.33396 -0.87165 -0.33341
-1.33379 -0.87005 -0.33338
-1.33448 -0.86899 -0.33338
-1.33598 -0.86847 -0.33359
-1.33582 -0.86687 -0.33356
-1.33650 -0.86581 -0.33356
-1.33803 -0.86531 -0.33360
-1.33786 -0.86370 -0.33357
-1.33854 -0.86264 -0.33357
-1.33840 -0.86106 -0.33337
-1.33908 -0.86000 -0.33337
-1.33811 -0.85789 -0.33297
-1.33878 -0.85683 -0.33297
-1.34276 -0.85788 -0.33379
-1.34591 -0.85840 -0.33441
-1.33503 -0.84998 -0.33154
-1.33487 -0.84840 -0.33134
-1.33802 -0.84892 -0.33196
-1.34120 -0.84946 -0.33241
-1.34187 -0.84840 -0.33241
-1.34171 -0.84682 -0.33221
-1.34158 -0.84525 -0.33184
-1.33976 -0.84263 -0.33122
-1.33793 -0.84001 -0.33061
-1.34025 -0.84000 -0.33103
-1.34258 -0.83998 -0.33144
-1.34158 -0.83788 -0.33103
-1.34224 -0.83682 -0.33103
-1.34373 -0.83628 -0.33124
-1.34439 -0.83522 -0.33125
-1.34421 -0.83364 -0.33104
-1.34653 -0.83361 -0.33146
-1.34466 -0.83099 -0.33101
-1.34115 -0.82736 -0.32999
-1.35058 -0.82877 -0.33201
-1.34957 -0.82668 -0.33161
-1.35105 -0.82612 -0.33182
-1.35337 -0.82608 -0.33223
-1.35402 -0.82501 -0.33223
-1.35384 -0.82343 -0.33203
-1.35449 -0.82237 -0.33203
-1.35430 -0.82079 -0.33183
-1.35578 -0.82023 -0.33204
-1.35726 -0.81966 -0.33225
-1.35791 -0.81859 -0.33225
-1.35604 -0.81601 -0.33164
-1.35755 -0.81546 -0.33167
-1.35819 -0.81439 -0.33168
-1.35883 -0.81331 -0.33168
-1.35948 -0.81224 -0.33168
-1.36011 -0.81117 -0.33169
-1.35991 -0.80959 -0.33148
-1.36055 -0.80852 -0.33149
-1.36119 -0.80745 -0.33149
-1.36267 -0.80687 -0.33170
-1.36330 -0.80580 -0.33170
-1.36309 -0.80422 -0.33150
-1.36288 -0.80265 -0.33130
-1.36433 -0.80205 -0.33167
-1.36837 -0.80298 -0.33233
-1.36115 -0.79586 -0.33045
-1.36178 -0.79478 -0.33046
-1.36491 -0.79517 -0.33124
-1.36218 -0.79214 -0.33026
-1.36027 -0.78959 -0.32964
-1.36171 -0.78899 -0.33002
-1.36233 -0.78792 -0.33002
-1.36125 -0.78586 -0.32962
-1.36275 -0.78529 -0.32966
-1.36591 -0.78568 -0.33027
-1.36650 -0.78459 -0.33045
-1.36712 -0.78351 -0.33045
-1.36774 -0.78243 -0.33045
-1.36835 -0.78135 -0.33045
-1.36815 -0.77980 -0.33008
-1.36706 -0.77776 -0.32968
-1.36682 -0.77619 -0.32947
-1.37002 -0.77658 -0.32992
-1.36978 -0.77502 -0.32972
-1.36954 -0.77346 -0.32952
-1.37673 -0.77465 -0.33096
-1.37392 -0.77165 -0.33014
-1.37456 -0.77058 -0.32998
-1.37517 -0.76950 -0.32998
-1.37577 -0.76841 -0.32998
-1.37635 -0.76731 -0.33016
-1.37695 -0.76622 -0.33016
-1.37756 -0.76514 -0.33016
-1.37816 -0.76405 -0.33016
-1.37876 -0.76296 -0.33017
-1.37936 -0.76187 -0.33017
-1.37993 -0.76077 -0.33034
-1.38053 -0.75968 -0.33034
-1.38110 -0.75857 -0.33052
-1.38344 -0.75844 -0.33076
-1.38229 -0.75639 -0.33052
-1.38203 -0.75483 -0.33032
-1.38351 -0.75423 -0.33036
-1.38411 -0.75313 -0.33036
-1.38470 -0.75204 -0.33037
-1.38701 -0.75188 -0.33078
-1.38760 -0.75079 -0.33078
-1.38647 -0.74876 -0.33037
-1.38620 -0.74720 -0.33017
-1.38765 -0.74657 -0.33038
-1.38827 -0.74550 -0.33021
-1.39058 -0.74533 -0.33063
-1.38916 -0.74176 -0.33002
-1.38801 -0.73975 -0.32961
-1.38510 -0.73681 -0.32896
-1.38571 -0.73573 -0.32880
-1.38975 -0.73648 -0.32962
-1.38856 -0.73445 -0.32938
-1.38481 -0.73108 -0.32836
-1.38539 -0.72999 -0.32836
-1.38942 -0.73072 -0.32918
-1.39086 -0.73009 -0.32939
-1.38967 -0.72807 -0.32915
-1.38851 -0.72607 -0.32875
-1.39081 -0.72588 -0.32916
-1.39138 -0.72479 -0.32916
-1.39021 -0.72279 -0.32875
-1.39078 -0.72170 -0.32876
-1.39308 -0.72151 -0.32917
-1.39188 -0.71950 -0.32893
-1.38896 -0.71661 -0.32811
-1.39127 -0.71642 -0.32853
-1.39590 -0.71603 -0.32919
-1.39472 -0.71404 -0.32878
-1.39790 -0.71428 -0.32940
-1.40107 -0.71452 -0.33002
-1.40163 -0.71342 -0.33002
-1.40048 -0.71144 -0.32944
-1.40191 -0.71079 -0.32965
-1.40334 -0.71013 -0.32986
-1.40305 -0.70860 -0.32949
-1.40274 -0.70706 -0.32929
-1.40329 -0.70595 -0.32929
-1.40209 -0.70397 -0.32888
-1.40265 -0.70287 -0.32888
-1.40582 -0.70308 -0.32950
-1.40372 -0.70065 -0.32906
-1.39551 -0.69518 -0.32701
-2.10029 -0.60286 -0.46003
-2.10735 -0.60309 -0.46148
-2.10971 -0.60196 -0.46190
-2.11117 -0.60058 -0.46187
-2.11348 -0.59943 -0.46252
-2.11395 -0.59776 -0.46253
-2.11442 -0.59610 -0.46253
-2.11677 -0.59496 -0.46295
-2.12006 -0.59408 -0.46357
-2.11205 -0.59004 -0.46172
-1.71396 -1.40259 -0.46503
-1.71889 -1.40437 -0.46582
-1.71763 -1.39661 -0.46460
-1.72253 -1.39835 -0.46563
-1.71982 -1.39391 -0.46461
-1.72092 -1.39256 -0.46462
-1.72505 -1.39367 -0.46544
-1.72615 -1.39231 -0.46544
-1.72343 -1.38789 -0.46442
-1.72223 -1.38469 -0.46381
-1.72560 -1.38518 -0.46443
-1.72741 -1.38440 -0.46488
-1.72774 -1.38244 -0.46468
-1.73695 -1.35656 -0.46289
-1.29715 -0.96003 -0.33904
-1.29478 -0.95671 -0.33805
-1.29553 -0.95569 -0.33805
-1.29786 -0.95583 -0.33847
-1.29861 -0.95481 -0.33847
-1.29936 -0.95379 -0.33847
-1.30008 -0.95275 -0.33865
-1.30006 -0.95117 -0.33827
-1.30002 -0.94956 -0.33807
-1.30077 -0.94854 -0.33808
-1.30152 -0.94751 -0.33808
-1.30144 -0.94589 -0.33805
-1.30301 -0.94546 -0.33808
-1.30370 -0.94438 -0.33843
-1.30365 -0.94278 -0.33823
-1.30280 -0.94061 -0.33782
-1.30275 -0.93901 -0.33762
-1.30270 -0.93741 -0.33742
-1.30264 -0.93581 -0.33721
-1.30497 -0.93592 -0.33763
-1.30571 -0.93489 -0.33763
-1.30565 -0.93329 -0.33743
-1.30482 -0.93114 -0.33685
-1.30473 -0.92952 -0.33682
-1.30466 -0.92793 -0.33661
-1.30542 -0.92692 -0.33644
-1.30695 -0.92645 -0.33665
-1.30768 -0.92542 -0.33666
-1.30921 -0.92495 -0.33687
-1.30914 -0.92336 -0.33666
-1.30986 -0.92232 -0.33666
-1.31062 -0.92131 -0.33650
-1.31055 -0.91971 -0.33629
-1.30967 -0.91756 -0.33589
-1.31039 -0.91652 -0.33589
-1.31272 -0.91661 -0.33630
-1.31344 -0.91557 -0.33631
-1.31255 -0.91342 -0.33590
-1.31327 -0.91238 -0.33590
-1.31480 -0.91190 -0.33611
-1.31471 -0.91031 -0.33591
-1.31543 -0.90927 -0.33591
-1.31853 -0.90988 -0.33670
-1.31683 -0.90717 -0.33609
-1.31593 -0.90502 -0.33568
-1.31665 -0.90398 -0.33568
-1.31816 -0.90350 -0.33589
-1.31804 -0.90188 -0.33586
-1.31878 -0.90086 -0.33569
-1.31946 -0.89980 -0.33587
-1.32101 -0.89933 -0.33590
-1.32253 -0.89884 -0.33611
-1.32320 -0.89778 -0.33629
-1.32232 -0.89565 -0.33571
-1.32056 -0.89294 -0.33526
-1.32130 -0.89192 -0.33509
-1.32281 -0.89143 -0.33530
-1.32351 -0.89038 -0.33531
-1.32503 -0.88988 -0.33552
-1.32573 -0.88884 -0.33552
-1.32402 -0.88618 -0.33473
