-1.55999 -0.52201 -0.18151
-1.56133 -0.52109 -0.18180
-1.56174 -0.51986 -0.18180
-1.56309 -0.51894 -0.18191
-1.56631 -0.51864 -0.18242
-1.56955 -0.51834 -0.18275
-1.57185 -0.51772 -0.18297
-1.57226 -0.51648 -0.18297
-1.57455 -0.51586 -0.18320
-1.57307 -0.51400 -0.18298
-1.56686 -0.51060 -0.18221
-1.56632 -0.50906 -0.18211
-1.56672 -0.50782 -0.18211
-1.56994 -0.50750 -0.18261
-1.56844 -0.50565 -0.18240
-1.56506 -0.50319 -0.18196
-1.59006 -0.50985 -0.18482
-1.51865 -0.65495 -0.18340
-1.49817 -0.64472 -0.18087
-1.49868 -0.64354 -0.18087
-1.50101 -0.64314 -0.18110
-1.50243 -0.64235 -0.18121
-1.50293 -0.64117 -0.18121
-1.50250 -0.63959 -0.18127
-1.50392 -0.63880 -0.18139
-1.50900 -0.63955 -0.18194
-1.51226 -0.63953 -0.18210
-1.51273 -0.63833 -0.18245
-1.51415 -0.63753 -0.18256
-1.51556 -0.63672 -0.18268
-1.51146 -0.63360 -0.18230
-1.50738 -0.63049 -0.18175
-1.50697 -0.62893 -0.18147
-1.50838 -0.62813 -0.18158
-1.50889 -0.62695 -0.18141
-1.50663 -0.62462 -0.18109
-1.53374 -0.63444 -0.18446
-1.59257 -0.53991 -0.18731
-1.57415 -0.53228 -0.18527
-1.56797 -0.52881 -0.18450
-1.56276 -0.52568 -0.18366
-1.56130 -0.52382 -0.18327
-1.56077 -0.52227 -0.18316
-1.56119 -0.52104 -0.18317
-1.56067 -0.51950 -0.18289
-1.56202 -0.51858 -0.18300
-1.56432 -0.51798 -0.18323
-1.56945 -0.51830 -0.18378
-1.57080 -0.51737 -0.18390
-1.57215 -0.51644 -0.18401
-1.57444 -0.51582 -0.18423
-1.57107 -0.51334 -0.18379
-1.56581 -0.51026 -0.18313
-1.56432 -0.50841 -0.18291
-1.56661 -0.50779 -0.18314
-1.56983 -0.50746 -0.18364
-1.56737 -0.50530 -0.18349
-1.56682 -0.50376 -0.18338
-1.50570 -0.64936 -0.18356
-1.49801 -0.64465 -0.18240
-1.50126 -0.64465 -0.18273
-1.50268 -0.64386 -0.18285
-1.50318 -0.64267 -0.18285
-1.50279 -0.64111 -0.18257
-1.50238 -0.63954 -0.18246
-1.50652 -0.63990 -0.18308
-1.51160 -0.64066 -0.18364
-1.51302 -0.63985 -0.18375
-1.51351 -0.63866 -0.18393
-1.51492 -0.63785 -0.18404
-1.51542 -0.63666 -0.18404
-1.50951 -0.63278 -0.18327
-1.50725 -0.63044 -0.18294
-1.50867 -0.62964 -0.18305
-1.51100 -0.62921 -0.18328
-1.51147 -0.62802 -0.18345
-1.50921 -0.62569 -0.18312
-1.51339 -0.62603 -0.18340
-1.57925 -0.53539 -0.18715
-1.56931 -0.53064 -0.18592
-1.56408 -0.52750 -0.18526
-1.55790 -0.52405 -0.18448
-1.55831 -0.52282 -0.18448
-1.56061 -0.52222 -0.18471
-1.56197 -0.52130 -0.18482
-1.56143 -0.51975 -0.18471
-1.56090 -0.51821 -0.18460
-1.56602 -0.51854 -0.18516
-1.57022 -0.51856 -0.18544
-1.57156 -0.51762 -0.18573
-1.57197 -0.51638 -0.18573
-1.57428 -0.51577 -0.18578
-1.57469 -0.51453 -0.18579
-1.56848 -0.51113 -0.18501
-1.56604 -0.50897 -0.18468
-1.56646 -0.50774 -0.18451
-1.56970 -0.50742 -0.18485
-1.56441 -0.50435 -0.18435
-1.58278 -0.50889 -0.18647
-1.52011 -0.65557 -0.18724
-1.49873 -0.64496 -0.18438
-1.49833 -0.64339 -0.18427
-1.49973 -0.64259 -0.18455
-1.50116 -0.64181 -0.18450
-1.50165 -0.64062 -0.18467
-1.50217 -0.63945 -0.18450
-1.50450 -0.63904 -0.18473
-1.50958 -0.63980 -0.18529
-1.51283 -0.63977 -0.18563
-1.51243 -0.63820 -0.18535
-1.51476 -0.63778 -0.18558
-1.51618 -0.63698 -0.18569
-1.51395 -0.63464 -0.18519
-1.50895 -0.63115 -0.18452
-1.50761 -0.62919 -0.18430
-1.50902 -0.62839 -0.18441
-1.51135 -0.62797 -0.18464
-1.50999 -0.62601 -0.18459
-1.50774 -0.62369 -0.18409
-1.52936 -0.63122 -0.18667
-1.59508 -0.54076 -0.19062
-1.57291 -0.53186 -0.18792
-1.56580 -0.52808 -0.18703
-1.56056 -0.52494 -0.18635
-1.55815 -0.52276 -0.18602
-1.56045 -0.52216 -0.18625
-1.56178 -0.52124 -0.18653
-1.56219 -0.52001 -0.18654
-1.56166 -0.51846 -0.18643
-1.56395 -0.51785 -0.18665
-1.56908 -0.51818 -0.18722
-1.57136 -0.51756 -0.18762
-1.57178 -0.51632 -0.18745
-1.57406 -0.51570 -0.18785
-1.57069 -0.51322 -0.18740
-1.56826 -0.51106 -0.18707
-1.56679 -0.50921 -0.18668
-1.56908 -0.50859 -0.18690
-1.57042 -0.50765 -0.18702
-1.56799 -0.50550 -0.18668
-1.56744 -0.50396 -0.18657
-1.52370 -0.65712 -0.18821
-1.50049 -0.64571 -0.18528
-1.49915 -0.64374 -0.18523
-1.49966 -0.64256 -0.18523
-1.50199 -0.64216 -0.18546
-1.50341 -0.64137 -0.18557
-1.50298 -0.63979 -0.18563
-1.50348 -0.63861 -0.18564
-1.50856 -0.63936 -0.18620
-1.51363 -0.64011 -0.18677
-1.51414 -0.63892 -0.18677
-1.51555 -0.63812 -0.18689
-1.51329 -0.63576 -0.18672
-1.50829 -0.63227 -0.18605
-1.50697 -0.63032 -0.18566
-1.50838 -0.62952 -0.18577
-1.50979 -0.62871 -0.18589
-1.50937 -0.62714 -0.18578
-1.50711 -0.62482 -0.18544
-1.52506 -0.63085 -0.18742
-1.59871 -0.54199 -0.19230
-1.57562 -0.53278 -0.18930
-1.56759 -0.52868 -0.18811
-1.56139 -0.52522 -0.18749
-1.55992 -0.52336 -0.18727
-1.55845 -0.52150 -0.18705
-1.55888 -0.52027 -0.18688
-1.56116 -0.51966 -0.18728
-1.56347 -0.51906 -0.18734
-1.56860 -0.51939 -0.18791
-1.57089 -0.51878 -0.18813
-1.57223 -0.51784 -0.18842
-1.57265 -0.51661 -0.18825
-1.57400 -0.51568 -0.18837
-1.57250 -0.51381 -0.18832
-1.56818 -0.51103 -0.18776
-1.56669 -0.50918 -0.18753
-1.56802 -0.50824 -0.18782
-1.57031 -0.50762 -0.18805
-1.56882 -0.50577 -0.18782
-1.56638 -0.50362 -0.18749
-1.60273 -0.51391 -0.19179
-1.50485 -0.64759 -0.18772
-1.49990 -0.64406 -0.18687
-1.50132 -0.64328 -0.18699
-1.50183 -0.64209 -0.18699
-1.50233 -0.64091 -0.18699
-1.50284 -0.63973 -0.18699
-1.50696 -0.64009 -0.18779
-1.51297 -0.64123 -0.18831
-1.51347 -0.64004 -0.18831
-1.51397 -0.63885 -0.18831
-1.51448 -0.63766 -0.18832
-1.51315 -0.63570 -0.18809
-1.50998 -0.63297 -0.18764
-1.50863 -0.63101 -0.18758
-1.50820 -0.62944 -0.18747
-1.51053 -0.62902 -0.18770
-1.51103 -0.62783 -0.18771
-1.50877 -0.62550 -0.18737
-1.51752 -0.62773 -0.18840
-1.56983 -0.53082 -0.19000
-1.56548 -0.52797 -0.18995
-1.56027 -0.52484 -0.18910
-1.55974 -0.52329 -0.18898
-1.56109 -0.52238 -0.18910
-1.56150 -0.52115 -0.18910
-1.56191 -0.51992 -0.18911
-1.56232 -0.51868 -0.18911
-1.56558 -0.51839 -0.18928
-1.56974 -0.51840 -0.18991
-1.57109 -0.51747 -0.19003
-1.57152 -0.51624 -0.18986
-1.57380 -0.51561 -0.19026
-1.57517 -0.51468 -0.19021
-1.56990 -0.51159 -0.18953
-1.56464 -0.50851 -0.18885
-1.56598 -0.50758 -0.18896
-1.57016 -0.50757 -0.18942
-1.57054 -0.50632 -0.18960
-1.56432 -0.50296 -0.18880
-1.58553 -0.50840 -0.19132
-1.50285 -0.64673 -0.18919
-1.49786 -0.64319 -0.18868
-1.50111 -0.64318 -0.18902
-1.50163 -0.64201 -0.18886
-1.50213 -0.64083 -0.18886
-1.50262 -0.63964 -0.18903
-1.50405 -0.63885 -0.18898
-1.50823 -0.63923 -0.18927
-1.51329 -0.63997 -0.19002
-1.51381 -0.63879 -0.18985
-1.51614 -0.63836 -0.19008
-1.51481 -0.63640 -0.18986
-1.50982 -0.63291 -0.18917
-1.50758 -0.63058 -0.18866
-1.50808 -0.62939 -0.18866
-1.50949 -0.62859 -0.18878
-1.50998 -0.62740 -0.18878
-1.50864 -0.62545 -0.18856
-1.51739 -0.62768 -0.18959
-1.57997 -0.53425 -0.19316
-1.57194 -0.53015 -0.19196
-1.56575 -0.52669 -0.19133
-1.56051 -0.52355 -0.19064
-1.55996 -0.52200 -0.19070
-1.56039 -0.52078 -0.19053
-1.56078 -0.51954 -0.19070
-1.56214 -0.51862 -0.19082
-1.56537 -0.51833 -0.19117
-1.56955 -0.51834 -0.19163
-1.57185 -0.51772 -0.19187
-1.57226 -0.51648 -0.19187
-1.57361 -0.51555 -0.19199
-1.57496 -0.51461 -0.19211
-1.57064 -0.51183 -0.19153
-1.56632 -0.50906 -0.19096
-1.56672 -0.50782 -0.19096
-1.57090 -0.50781 -0.19143
-1.57036 -0.50626 -0.19131
-1.56605 -0.50351 -0.19057
-1.59198 -0.51046 -0.19368
-1.50453 -0.64745 -0.19079
-1.49954 -0.64391 -0.19026
-1.50096 -0.64312 -0.19038
-1.50238 -0.64233 -0.19050
-1.50469 -0.64192 -0.19091
-1.50520 -0.64074 -0.19091
-1.50753 -0.64033 -0.19114
-1.51169 -0.64069 -0.19161
-1.51309 -0.63988 -0.19190
-1.51359 -0.63869 -0.19190
-1.51594 -0.63828 -0.19197
-1.51461 -0.63632 -0.19174
-1.51053 -0.63321 -0.19116
-1.50920 -0.63125 -0.19093
-1.50878 -0.62968 -0.19082
-1.51019 -0.62888 -0.19094
-1.51068 -0.62769 -0.19094
-1.50844 -0.62537 -0.19043
-1.51352 -0.62608 -0.19101
-1.58312 -0.53670 -0.19536
-1.57319 -0.53195 -0.19409
-1.56514 -0.52786 -0.19304
-1.55897 -0.52441 -0.19223
-1.55750 -0.52254 -0.19200
-1.55979 -0.52194 -0.19224
-1.56115 -0.52103 -0.19236
-1.56250 -0.52011 -0.19248
-1.56293 -0.51888 -0.19231
-1.56520 -0.51827 -0.19271
-1.57035 -0.51860 -0.19313
-1.57264 -0.51798 -0.19336
-1.57305 -0.51674 -0.19336
-1.57346 -0.51550 -0.19337
-1.57479 -0.51456 -0.19366
-1.57141 -0.51208 -0.19320
-1.56802 -0.50961 -0.19291
-1.56653 -0.50776 -0.19268
-1.56975 -0.50743 -0.19320
-1.57109 -0.50650 -0.19332
-1.56676 -0.50374 -0.19274
-1.58231 -0.50736 -0.19443
-1.50252 -0.64659 -0.19226
-1.49755 -0.64306 -0.19156
-1.49988 -0.64266 -0.19179
-1.50130 -0.64187 -0.19192
-1.50272 -0.64108 -0.19204
-1.50322 -0.63990 -0.19204
-1.50373 -0.63871 -0.19204
-1.50880 -0.63947 -0.19263
-1.51388 -0.64021 -0.19321
-1.51344 -0.63863 -0.19327
-1.51395 -0.63744 -0.19327
-1.51445 -0.63625 -0.19328
-1.51403 -0.63467 -0.19316
-1.50901 -0.63118 -0.19263
-1.50769 -0.62923 -0.19223
-1.50909 -0.62842 -0.19252
-1.51050 -0.62761 -0.19264
-1.51099 -0.62642 -0.19265
-1.51791 -0.62789 -0.19347
-1.57771 -0.53348 -0.19640
-1.57058 -0.52969 -0.19564
-1.56441 -0.52624 -0.19482
-1.55919 -0.52311 -0.19395
-1.55960 -0.52188 -0.19395
-1.56094 -0.52096 -0.19424
-1.56231 -0.52005 -0.19419
-1.56177 -0.51850 -0.19408
-1.56313 -0.51758 -0.19420
-1.56636 -0.51728 -0.19455
-1.57243 -0.51791 -0.19526
-1.57378 -0.51698 -0.19538
-1.57515 -0.51605 -0.19532
-1.57367 -0.51419 -0.19509
-1.56744 -0.51079 -0.19445
-1.56503 -0.50864 -0.19393
-1.56827 -0.50832 -0.19428
-1.57150 -0.50800 -0.19464
-1.56907 -0.50585 -0.19429
-1.56377 -0.50278 -0.19376
-1.59350 -0.51095 -0.19722
-1.51098 -0.65164 -0.19479
-1.49964 -0.64535 -0.19327
-1.49830 -0.64338 -0.19320
-1.50063 -0.64298 -0.19344
-1.50114 -0.64180 -0.19344
-1.50257 -0.64102 -0.19339
-1.50308 -0.63983 -0.19340
-1.50541 -0.63943 -0.19364
-1.51139 -0.64057 -0.19434
-1.51283 -0.63977 -0.19429
-1.51333 -0.63858 -0.19430
-1.51566 -0.63816 -0.19453
-1.51525 -0.63659 -0.19442
-1.51026 -0.63309 -0.19372
-1.50802 -0.63076 -0.19320
-1.50760 -0.62919 -0.19308
-1.50810 -0.62801 -0.19309
-1.51042 -0.62758 -0.19332
-1.50908 -0.62563 -0.19309
-1.51047 -0.62482 -0.19338
-1.58751 -0.53819 -0.19873
-1.57477 -0.53249 -0.19709
-1.56860 -0.52902 -0.19626
-1.56054 -0.52494 -0.19521
-1.56002 -0.52339 -0.19509
-1.56041 -0.52215 -0.19527
-1.56082 -0.52092 -0.19527
-1.56123 -0.51969 -0.19527
-1.56258 -0.51877 -0.19539
-1.56582 -0.51847 -0.19575
-1.57000 -0.51848 -0.19622
-1.57227 -0.51786 -0.19663
-1.57268 -0.51662 -0.19664
-1.57403 -0.51569 -0.19676
-1.57540 -0.51476 -0.19671
-1.57012 -0.51166 -0.19617
-1.56769 -0.50950 -0.19582
-1.56906 -0.50858 -0.19577
-1.56851 -0.50704 -0.19566
-1.56515 -0.50458 -0.19502
-1.57406 -0.50609 -0.19608
-1.50772 -0.64882 -0.19552
-1.49910 -0.64372 -0.19434
-1.50050 -0.64292 -0.19463
-1.50101 -0.64174 -0.19463
-1.50242 -0.64095 -0.19475
-1.50201 -0.63938 -0.19464
-1.50524 -0.63936 -0.19517
-1.51124 -0.64050 -0.19571
-1.51266 -0.63970 -0.19583
-1.51316 -0.63851 -0.19583
-1.51550 -0.63809 -0.19607
-1.51600 -0.63690 -0.19608
-1.51009 -0.63302 -0.19525
-1.50692 -0.63030 -0.19478
-1.50741 -0.62911 -0.19478
-1.50974 -0.62869 -0.19502
-1.51024 -0.62750 -0.19503
-1.50800 -0.62518 -0.19450
-1.51124 -0.62513 -0.19486
-1.57085 -0.53116 -0.19800
-1.57127 -0.52992 -0.19800
-1.55945 -0.52457 -0.19646
-1.55798 -0.52270 -0.19623
-1.55935 -0.52180 -0.19617
-1.56070 -0.52088 -0.19630
-1.56110 -0.51964 -0.19647
-1.56056 -0.51810 -0.19636
-1.56474 -0.51811 -0.19683
-1.56988 -0.51844 -0.19726
-1.57310 -0.51813 -0.19779
-1.57351 -0.51689 -0.19779
-1.57486 -0.51596 -0.19791
-1.57525 -0.51471 -0.19809
-1.56999 -0.51162 -0.19738
-1.56567 -0.50885 -0.19679
-1.56701 -0.50792 -0.19691
-1.57025 -0.50760 -0.19727
-1.56970 -0.50605 -0.19715
-1.56443 -0.50299 -0.19644
-1.57901 -0.50630 -0.19823
-1.51121 -0.65033 -0.19736
-1.49986 -0.64405 -0.19582
-1.50037 -0.64287 -0.19582
-1.50088 -0.64169 -0.19582
-1.50229 -0.64090 -0.19594
-1.50369 -0.64009 -0.19624
-1.50511 -0.63930 -0.19636
-1.51018 -0.64005 -0.19696
-1.51251 -0.63964 -0.19720
-1.51393 -0.63884 -0.19732
-1.51535 -0.63803 -0.19744
-1.51491 -0.63644 -0.19750
-1.51083 -0.63333 -0.19690
-1.50858 -0.63099 -0.19655
-1.50906 -0.62980 -0.19672
-1.50955 -0.62861 -0.19672
-1.51005 -0.62743 -0.19673
-1.50873 -0.62548 -0.19632
-1.51107 -0.62506 -0.19639
-1.58528 -0.53743 -0.20163
-1.57443 -0.53238 -0.20003
-1.56829 -0.52892 -0.19902
-1.55929 -0.52451 -0.19783
-1.55782 -0.52265 -0.19759
-1.56012 -0.52205 -0.19784
-1.56147 -0.52114 -0.19796
-1.56188 -0.51990 -0.19796
-1.56135 -0.51836 -0.19784
-1.56458 -0.51806 -0.19820
-1.56971 -0.51839 -0.19880
-1.57200 -0.51777 -0.19905
-1.57241 -0.51653 -0.19905
-1.57281 -0.51529 -0.19905
-1.57416 -0.51435 -0.19917
-1.56985 -0.51157 -0.19858
-1.56648 -0.50911 -0.19811
-1.56591 -0.50756 -0.19816
-1.56915 -0.50724 -0.19852
-1.56955 -0.50600 -0.19852
-1.56520 -0.50324 -0.19810
-1.57410 -0.50473 -0.19918
-1.52421 -0.65734 -0.20070
-1.50192 -0.64633 -0.19770
-1.49968 -0.64397 -0.19751
-1.50018 -0.64279 -0.19752
-1.50160 -0.64200 -0.19764
-1.50302 -0.64121 -0.19776
-1.50261 -0.63963 -0.19765
-1.50402 -0.63884 -0.19777
-1.51001 -0.63998 -0.19849
-1.51415 -0.64033 -0.19915
-1.51284 -0.63838 -0.19874
-1.51333 -0.63718 -0.19891
-1.51566 -0.63676 -0.19916
-1.51341 -0.63441 -0.19880
-1.50841 -0.63092 -0.19808
-1.50797 -0.62935 -0.19813
-1.50938 -0.62854 -0.19825
-1.50990 -0.62736 -0.19809
-1.50764 -0.62503 -0.19773
-1.52923 -0.63258 -0.20050
-1.59636 -0.54119 -0.20482
-1.57516 -0.53262 -0.20205
-1.56993 -0.52947 -0.20133
-1.56378 -0.52602 -0.20031
-1.55949 -0.52321 -0.19972
-1.55992 -0.52199 -0.19955
-1.56126 -0.52107 -0.19984
-1.56261 -0.52015 -0.19996
-1.56209 -0.51861 -0.19967
-1.56439 -0.51800 -0.19992
-1.56951 -0.51832 -0.20052
-1.57182 -0.51771 -0.20060
-1.57221 -0.51646 -0.20077
-1.57262 -0.51522 -0.20077
-1.57208 -0.51367 -0.20066
-1.56776 -0.51089 -0.20006
-1.56630 -0.50905 -0.19965
-1.56762 -0.50811 -0.19994
-1.57086 -0.50779 -0.20031
-1.56842 -0.50564 -0.19995
-1.56599 -0.50349 -0.19959
-1.60323 -0.51407 -0.20447
-1.52273 -0.65528 -0.20202
-1.50226 -0.64508 -0.19924
-1.50003 -0.64272 -0.19888
-1.50145 -0.64193 -0.19900
-1.50378 -0.64153 -0.19924
-1.50337 -0.63996 -0.19913
-1.50479 -0.63916 -0.19925
-1.50894 -0.63953 -0.19974
-1.51217 -0.63949 -0.20027
-1.51269 -0.63831 -0.20011
-1.51411 -0.63751 -0.20023
-1.51552 -0.63670 -0.20035
-1.51234 -0.63397 -0.20004
-1.50734 -0.63048 -0.19932
-1.50692 -0.62891 -0.19920
-1.50925 -0.62849 -0.19945
-1.50972 -0.62729 -0.19962
-1.50930 -0.62572 -0.19950
-1.50612 -0.62302 -0.19902
-1.52955 -0.63130 -0.20205
-1.59340 -0.54019 -0.20568
-1.57408 -0.53225 -0.20314
-1.56885 -0.52911 -0.20241
-1.55986 -0.52471 -0.20120
-1.55651 -0.52221 -0.20072
-1.55974 -0.52193 -0.20109
-1.56112 -0.52102 -0.20104
-1.56153 -0.51979 -0.20104
-1.56192 -0.51855 -0.20122
-1.56517 -0.51826 -0.20141
-1.57124 -0.51889 -0.20214
-1.57259 -0.51796 -0.20227
-1.57205 -0.51641 -0.20215
-1.57246 -0.51517 -0.20215
-1.57381 -0.51424 -0.20228
-1.57327 -0.51269 -0.20216
-1.56801 -0.50961 -0.20143
-1.56558 -0.50745 -0.20107
-1.56786 -0.50683 -0.20132
-1.56637 -0.50498 -0.20108
-1.56866 -0.50435 -0.20132
-1.50156 -0.64618 -0.20093
-1.50025 -0.64421 -0.20069
-1.50077 -0.64304 -0.20053
-1.50312 -0.64265 -0.20060
-1.50363 -0.64146 -0.20061
-1.50230 -0.63950 -0.20036
-1.50463 -0.63910 -0.20061
-1.51153 -0.64063 -0.20147
-1.51478 -0.64060 -0.20183
-1.51435 -0.63901 -0.20189
-1.51393 -0.63743 -0.20177
-1.51535 -0.63663 -0.20189
-1.51036 -0.63313 -0.20116
-1.50721 -0.63042 -0.20051
-1.50677 -0.62884 -0.20056
-1.50908 -0.62841 -0.20098
-1.50959 -0.62724 -0.20081
-1.50825 -0.62529 -0.20057
-1.50780 -0.62371 -0.20062
-1.58661 -0.53789 -0.20658
-1.56919 -0.53060 -0.20408
-1.56583 -0.52809 -0.20377
-1.56062 -0.52496 -0.20287
-1.55915 -0.52310 -0.20262
-1.56051 -0.52218 -0.20275
-1.56280 -0.52158 -0.20300
-1.56321 -0.52035 -0.20300
-1.56174 -0.51849 -0.20276
-1.56497 -0.51819 -0.20313
-1.56917 -0.51821 -0.20345
-1.57146 -0.51759 -0.20369
-1.57187 -0.51635 -0.20370
-1.57322 -0.51542 -0.20382
-1.57457 -0.51449 -0.20395
-1.57120 -0.51201 -0.20346
-1.56690 -0.50925 -0.20268
-1.56540 -0.50739 -0.20261
-1.56768 -0.50677 -0.20286
-1.56527 -0.50462 -0.20233
-1.57132 -0.50521 -0.20323
-1.50414 -0.64729 -0.20266
-1.49918 -0.64375 -0.20193
-1.50062 -0.64297 -0.20189
-1.50112 -0.64179 -0.20189
-1.50254 -0.64100 -0.20201
-1.50211 -0.63942 -0.20206
-1.50170 -0.63785 -0.20194
-1.50585 -0.63822 -0.20244
-1.51275 -0.63974 -0.20330
-1.51417 -0.63894 -0.20343
-1.51557 -0.63812 -0.20372
-1.51334 -0.63579 -0.20319
-1.50742 -0.63190 -0.20250
-1.50793 -0.63072 -0.20233
-1.50841 -0.62953 -0.20250
-1.50890 -0.62834 -0.20251
-1.50940 -0.62716 -0.20251
-1.50805 -0.62521 -0.20227
-1.51953 -0.62857 -0.20392
-1.57749 -0.53341 -0.20657
-1.57037 -0.52962 -0.20576
-1.56514 -0.52648 -0.20502
-1.55991 -0.52335 -0.20429
-1.56033 -0.52212 -0.20429
-1.56074 -0.52089 -0.20429
-1.56115 -0.51966 -0.20430
-1.56344 -0.51905 -0.20455
-1.56856 -0.51938 -0.20516
-1.57179 -0.51908 -0.20554
-1.57222 -0.51784 -0.20537
-1.57263 -0.51660 -0.20537
-1.57398 -0.51567 -0.20550
-1.57344 -0.51412 -0.20538
-1.56913 -0.51134 -0.20476
-1.56670 -0.50918 -0.20440
-1.56710 -0.50794 -0.20440
-1.56939 -0.50732 -0.20465
-1.56790 -0.50547 -0.20441
-1.56263 -0.50241 -0.20367
-1.59327 -0.51088 -0.20761
-1.50940 -0.64955 -0.20528
-1.49897 -0.64366 -0.20380
-1.49947 -0.64248 -0.20380
-1.50091 -0.64170 -0.20376
-1.50322 -0.64129 -0.20418
-1.50374 -0.64012 -0.20401
-1.50333 -0.63855 -0.20389
-1.50475 -0.63775 -0.20402
-1.51254 -0.63965 -0.20518
-1.51489 -0.63924 -0.20526
-1.51354 -0.63727 -0.20519
-1.51496 -0.63646 -0.20531
-1.51546 -0.63527 -0.20531
-1.51138 -0.63216 -0.20470
-1.50819 -0.62944 -0.20438
-1.50686 -0.62749 -0.20413
-1.50918 -0.62707 -0.20438
-1.51149 -0.62663 -0.20480
-1.51110 -0.62508 -0.20434
-1.58381 -0.53554 -0.20969
-1.57295 -0.53049 -0.20820
-1.56678 -0.52703 -0.20733
-1.55875 -0.52296 -0.20605
-1.55822 -0.52142 -0.20592
-1.56049 -0.52081 -0.20635
-1.56281 -0.52021 -0.20643
-1.56227 -0.51867 -0.20631
-1.56645 -0.51868 -0.20681
-1.57065 -0.51870 -0.20714
-1.57200 -0.51777 -0.20726
-1.57241 -0.51653 -0.20727
-1.57281 -0.51529 -0.20727
-1.57322 -0.51405 -0.20727
-1.57079 -0.51188 -0.20690
-1.56650 -0.50912 -0.20611
-1.56503 -0.50727 -0.20569
-1.56824 -0.50695 -0.20624
-1.56959 -0.50601 -0.20637
-1.56526 -0.50326 -0.20575
-1.57889 -0.50626 -0.20749
-1.50556 -0.64789 -0.20649
-1.49877 -0.64358 -0.20549
-1.49926 -0.64239 -0.20567
-1.50250 -0.64238 -0.20604
-1.50300 -0.64120 -0.20605
-1.50351 -0.64002 -0.20605
-1.50401 -0.63883 -0.20605
-1.50725 -0.63881 -0.20643
-1.51232 -0.63956 -0.20706
-1.51280 -0.63836 -0.20723
-1.51331 -0.63717 -0.20724
-1.51563 -0.63675 -0.20749
-1.51522 -0.63517 -0.20737
-1.51023 -0.63168 -0.20662
-1.50798 -0.62935 -0.20625
-1.51028 -0.62892 -0.20667
-1.51078 -0.62773 -0.20667
-1.50760 -0.62502 -0.20617
-1.51636 -0.62726 -0.20713
-1.57984 -0.53420 -0.21093
-1.57180 -0.53010 -0.20980
-1.56281 -0.52570 -0.20855
-1.55855 -0.52289 -0.20776
-1.55988 -0.52197 -0.20806
-1.56219 -0.52138 -0.20814
-1.56260 -0.52014 -0.20814
-1.56207 -0.51860 -0.20802
-1.56342 -0.51768 -0.20815
-1.56854 -0.51800 -0.20878
-1.57177 -0.51769 -0.20916
-1.57218 -0.51645 -0.20916
-1.57447 -0.51583 -0.20941
-1.57394 -0.51428 -0.20929
-1.56868 -0.51119 -0.20854
-1.56625 -0.50904 -0.20817
-1.56569 -0.50749 -0.20822
-1.56798 -0.50686 -0.20847
-1.56743 -0.50532 -0.20835
-1.56216 -0.50226 -0.20760
-1.58995 -0.50981 -0.21124
-1.50977 -0.64971 -0.21002
-1.50026 -0.64422 -0.20863
-1.50076 -0.64304 -0.20863
-1.50218 -0.64224 -0.20877
-1.50267 -0.64106 -0.20894
-1.50317 -0.63987 -0.20894
-1.50276 -0.63830 -0.20882
-1.50509 -0.63789 -0.20907
-1.51107 -0.63903 -0.20984
-1.51340 -0.63861 -0.21009
-1.51388 -0.63741 -0.21027
-1.51531 -0.63661 -0.21023
-1.51488 -0.63503 -0.21027
-1.50989 -0.63154 -0.20951
-1.50766 -0.62921 -0.20897
-1.50998 -0.62879 -0.20922
-1.51048 -0.62760 -0.20922
-1.50914 -0.62566 -0.20897
-1.51238 -0.62561 -0.20936
-1.58136 -0.53472 -0.21414
-1.57335 -0.53062 -0.21282
-1.56530 -0.52654 -0.21168
-1.55820 -0.52278 -0.21066
-1.55863 -0.52155 -0.21050
-1.56092 -0.52095 -0.21075
-1.56227 -0.52003 -0.21088
-1.56268 -0.51880 -0.21089
-1.56309 -0.51757 -0.21089
-1.56726 -0.51758 -0.21140
-1.57048 -0.51727 -0.21196
-1.57088 -0.51603 -0.21196
-1.57318 -0.51541 -0.21222
-1.57452 -0.51447 -0.21235
-1.57116 -0.51200 -0.21184
-1.56779 -0.50953 -0.21133
-1.56628 -0.50768 -0.21125
-1.56951 -0.50736 -0.21164
-1.56991 -0.50612 -0.21164
-1.56464 -0.50306 -0.21088
-1.57921 -0.50637 -0.21279
-1.52044 -0.65430 -0.21378
-1.50089 -0.64449 -0.21114
-1.49959 -0.64253 -0.21072
-1.50101 -0.64174 -0.21085
-1.50242 -0.64095 -0.21098
-1.50384 -0.64016 -0.21111
-1.50343 -0.63859 -0.21098
-1.50941 -0.63973 -0.21175
-1.51267 -0.63971 -0.21197
-1.51318 -0.63852 -0.21197
-1.51459 -0.63771 -0.21210
-1.51511 -0.63653 -0.21194
-1.51195 -0.63380 -0.21143
-1.50788 -0.63070 -0.21079
-1.50746 -0.62913 -0.21067
-1.50795 -0.62794 -0.21067
-1.50936 -0.62714 -0.21080
-1.50896 -0.62558 -0.21050
-1.50668 -0.62325 -0.21029
-1.53100 -0.63190 -0.21362
-1.59057 -0.53783 -0.21698
-1.57502 -0.53119 -0.21480
-1.56039 -0.52489 -0.21276
-1.55799 -0.52271 -0.21238
-1.56122 -0.52242 -0.21276
-1.56163 -0.52119 -0.21277
-1.56202 -0.51995 -0.21294
-1.56243 -0.51872 -0.21294
-1.56566 -0.51842 -0.21333
-1.56984 -0.51843 -0.21385
-1.57211 -0.51780 -0.21428
-1.57157 -0.51625 -0.21415
-1.57292 -0.51532 -0.21428
-1.57427 -0.51439 -0.21441
-1.57373 -0.51284 -0.21429
-1.56848 -0.50976 -0.21352
-1.56605 -0.50760 -0.21314
-1.56739 -0.50667 -0.21327
-1.56968 -0.50604 -0.21353
-1.56725 -0.50390 -0.21315
-1.56766 -0.50267 -0.21298
-1.50655 -0.64832 -0.21374
-1.49795 -0.64323 -0.21245
-1.49939 -0.64245 -0.21241
-1.50172 -0.64205 -0.21268
-1.50222 -0.64087 -0.21268
-1.50272 -0.63968 -0.21268
-1.50323 -0.63850 -0.21268
-1.50647 -0.63848 -0.21307
-1.51154 -0.63923 -0.21372
-1.51386 -0.63881 -0.21398
-1.51435 -0.63761 -0.21416
-1.51487 -0.63643 -0.21399
-1.51443 -0.63484 -0.21404
-1.51036 -0.63174 -0.21339
-1.50719 -0.62902 -0.21288
-1.50768 -0.62784 -0.21288
-1.50909 -0.62703 -0.21301
-1.50775 -0.62508 -0.21276
-1.51189 -0.62540 -0.21345
-1.57902 -0.53392 -0.21771
-1.57096 -0.52982 -0.21672
-1.56480 -0.52637 -0.21581
-1.55865 -0.52293 -0.21474
-1.55812 -0.52139 -0.21461
-1.56136 -0.52110 -0.21500
-1.56177 -0.51987 -0.21500
-1.56312 -0.51895 -0.21513
-1.56729 -0.51896 -0.21566
-1.57241 -0.51928 -0.21631
-1.57187 -0.51773 -0.21618
-1.57040 -0.51587 -0.21592
-1.57175 -0.51494 -0.21606
-1.57309 -0.51401 -0.21619
-1.57067 -0.51184 -0.21580
-1.56638 -0.50908 -0.21499
-1.56584 -0.50753 -0.21486
-1.56907 -0.50721 -0.21525
-1.56944 -0.50597 -0.21543
-1.56326 -0.50261 -0.21435
-1.58159 -0.50713 -0.21681
-1.50916 -0.64945 -0.21517
-1.50054 -0.64434 -0.21404
-1.50105 -0.64316 -0.21404
-1.50155 -0.64198 -0.21405
-1.50206 -0.64080 -0.21405
-1.50256 -0.63961 -0.21405
-1.50306 -0.63843 -0.21406
-1.50630 -0.63841 -0.21445
-1.51046 -0.63877 -0.21497
-1.51278 -0.63835 -0.21523
-1.51329 -0.63716 -0.21524
-1.51470 -0.63636 -0.21537
-1.51611 -0.63555 -0.21550
-1.51112 -0.63206 -0.21473
-1.50888 -0.62972 -0.21434
-1.50939 -0.62855 -0.21417
-1.50986 -0.62735 -0.21434
-1.51038 -0.62617 -0.21418
-1.50995 -0.62460 -0.21405
-1.58264 -0.53515 -0.21928
-1.57085 -0.52978 -0.21759
-1.56469 -0.52633 -0.21668
-1.55948 -0.52321 -0.21573
-1.55802 -0.52135 -0.21547
-1.56031 -0.52075 -0.21573
-1.56164 -0.51982 -0.21604
-1.56205 -0.51859 -0.21604
-1.56342 -0.51768 -0.21600
-1.56663 -0.51737 -0.21657
-1.57174 -0.51768 -0.21722
-1.57309 -0.51675 -0.21736
-1.57350 -0.51551 -0.21736
-1.57391 -0.51427 -0.21736
-1.56958 -0.51148 -0.21689
-1.56526 -0.50871 -0.21624
-1.56470 -0.50717 -0.21628
-1.56887 -0.50715 -0.21681
-1.57024 -0.50623 -0.21677
-1.56403 -0.50286 -0.21586
-1.57859 -0.50617 -0.21782
-1.51810 -0.65329 -0.21785
-1.50040 -0.64428 -0.21524
-1.50092 -0.64310 -0.21507
-1.50143 -0.64192 -0.21508
-1.50195 -0.64075 -0.21491
-1.50246 -0.63957 -0.21491
-1.50387 -0.63877 -0.21504
-1.50985 -0.63991 -0.21583
-1.51309 -0.63988 -0.21622
-1.51359 -0.63869 -0.21623
-1.51410 -0.63750 -0.21623
-1.51460 -0.63631 -0.21623
-1.51235 -0.63397 -0.21584
-1.50734 -0.63048 -0.21524
-1.50692 -0.62891 -0.21511
-1.50927 -0.62849 -0.21520
-1.50974 -0.62730 -0.21538
-1.50840 -0.62535 -0.21512
-1.50614 -0.62303 -0.21473
-1.53410 -0.63318 -0.21882
-1.59186 -0.53827 -0.22199
-1.57443 -0.53099 -0.21950
-1.56170 -0.52532 -0.21767
-1.55833 -0.52282 -0.21732
-1.55970 -0.52192 -0.21729
-1.56105 -0.52100 -0.21742
-1.56146 -0.51977 -0.21742
-1.56091 -0.51821 -0.21747
-1.56511 -0.51824 -0.21782
-1.57022 -0.51855 -0.21848
-1.57253 -0.51794 -0.21857
-1.57200 -0.51639 -0.21844
-1.57335 -0.51546 -0.21858
-1.57564 -0.51484 -0.21884
-1.57227 -0.51236 -0.21832
-1.56608 -0.50898 -0.21741
-1.56461 -0.50714 -0.21698
-1.56690 -0.50651 -0.21724
-1.56918 -0.50589 -0.21750
-1.56486 -0.50313 -0.21685
-1.56809 -0.50280 -0.21725
-1.51251 -0.65089 -0.21811
-1.49936 -0.64383 -0.21614
-1.49985 -0.64264 -0.21631
-1.50126 -0.64185 -0.21645
-1.50177 -0.64067 -0.21645
-1.50318 -0.63988 -0.21658
-1.50460 -0.63908 -0.21672
-1.50601 -0.63829 -0.21685
-1.50925 -0.63826 -0.21725
-1.51158 -0.63784 -0.21752
-1.51299 -0.63704 -0.21765
-1.51441 -0.63623 -0.21779
-1.51125 -0.63351 -0.21726
-1.50900 -0.63117 -0.21687
-1.50860 -0.62961 -0.21657
-1.50910 -0.62842 -0.21657
-1.51051 -0.62762 -0.21671
-1.50825 -0.62529 -0.21632
-1.50693 -0.62335 -0.21589
-1.58891 -0.53727 -0.22265
-1.57339 -0.53064 -0.22024
-1.56626 -0.52686 -0.21937
-1.56010 -0.52342 -0.21845
-1.55957 -0.52187 -0.21832
-1.56092 -0.52095 -0.21846
-1.56133 -0.51972 -0.21846
-1.56174 -0.51849 -0.21846
-1.56025 -0.51663 -0.21838
-1.56538 -0.51696 -0.21886
-1.57236 -0.51789 -0.21996
-1.57277 -0.51665 -0.21996
-1.57317 -0.51540 -0.21997
-1.57358 -0.51416 -0.21997
-1.57210 -0.51231 -0.21971
-1.56779 -0.50953 -0.21905
-1.56534 -0.50737 -0.21884
-1.56762 -0.50675 -0.21910
-1.56897 -0.50582 -0.21924
-1.56467 -0.50307 -0.21841
-1.57167 -0.50395 -0.21933
-1.52240 -0.65514 -0.22060
-1.50106 -0.64456 -0.21743
-1.49972 -0.64259 -0.21734
-1.50116 -0.64181 -0.21730
-1.50166 -0.64063 -0.21731
-1.50399 -0.64022 -0.21757
-1.50264 -0.63825 -0.21749
-1.50315 -0.63707 -0.21749
-1.51188 -0.63937 -0.21851
-1.51236 -0.63818 -0.21868
-1.51378 -0.63737 -0.21882
-1.51519 -0.63656 -0.21895
-1.51204 -0.63384 -0.21843
-1.50796 -0.63074 -0.21777
-1.50663 -0.62879 -0.21751
-1.50712 -0.62760 -0.21751
-1.50942 -0.62717 -0.21795
-1.50809 -0.62522 -0.21769
-1.50674 -0.62328 -0.21743
-1.53289 -0.63268 -0.22113
-1.59343 -0.53880 -0.22473
-1.57413 -0.53089 -0.22195
-1.56703 -0.52712 -0.22089
-1.56089 -0.52368 -0.21979
-1.56034 -0.52213 -0.21984
-1.56077 -0.52090 -0.21967
-1.56118 -0.51967 -0.21967
-1.56159 -0.51844 -0.21967
-1.56670 -0.51877 -0.22034
-1.57088 -0.51877 -0.22087
-1.57223 -0.51784 -0.22101
-1.57169 -0.51629 -0.22087
-1.57306 -0.51537 -0.22084
-1.57441 -0.51443 -0.22097
-1.57291 -0.51257 -0.22088
-1.56768 -0.50950 -0.21992
-1.56525 -0.50735 -0.21953
-1.56754 -0.50672 -0.21979
-1.56888 -0.50579 -0.21993
-1.56552 -0.50334 -0.21923
-1.56779 -0.50270 -0.21967
-1.50485 -0.64759 -0.22015
-1.50078 -0.64444 -0.21966
-1.50038 -0.64287 -0.21953
-1.50090 -0.64170 -0.21936
-1.50141 -0.64052 -0.21937
-1.50191 -0.63934 -0.21937
-1.50424 -0.63893 -0.21964
-1.50839 -0.63929 -0.22017
-1.51254 -0.63965 -0.22071
-1.51307 -0.63847 -0.22054
-1.51357 -0.63728 -0.22054
-1.51498 -0.63647 -0.22068
-1.51363 -0.63451 -0.22059
-1.50866 -0.63103 -0.21962
-1.50733 -0.62908 -0.21936
-1.50782 -0.62789 -0.21936
-1.51015 -0.62747 -0.21963
-1.51064 -0.62628 -0.21963
-1.50839 -0.62396 -0.21923
-1.52351 -0.62881 -0.22154
-1.57445 -0.53238 -0.22365
-1.56829 -0.52892 -0.22272
-1.56216 -0.52548 -0.22161
-1.55691 -0.52235 -0.22099
-1.55732 -0.52112 -0.22099
-1.56057 -0.52084 -0.22122
-1.56192 -0.51992 -0.22136
-1.56231 -0.51868 -0.22153
-1.56458 -0.51806 -0.22198
-1.56781 -0.51776 -0.22238
-1.57104 -0.51745 -0.22278
-1.57239 -0.51652 -0.22292
-1.57280 -0.51528 -0.22292
-1.57318 -0.51403 -0.22310
-1.57267 -0.51249 -0.22279
-1.56930 -0.51003 -0.22226
-1.56593 -0.50757 -0.22173
-1.56916 -0.50724 -0.22214
-1.56673 -0.50509 -0.22174
-1.56429 -0.50295 -0.22134
-1.50925 -0.64948 -0.22203
-1.49972 -0.64399 -0.22073
-1.49932 -0.64242 -0.22060
-1.50073 -0.64163 -0.22073
-1.50122 -0.64044 -0.22091
-1.50263 -0.63964 -0.22104
-1.50224 -0.63808 -0.22074
-1.50546 -0.63805 -0.22132
-1.51235 -0.63957 -0.22226
-1.51376 -0.63877 -0.22240
-1.51335 -0.63719 -0.22227
-1.51385 -0.63600 -0.22227
-1.51344 -0.63443 -0.22214
-1.50937 -0.63132 -0.22147
-1.50805 -0.62938 -0.22103
-1.50855 -0.62819 -0.22104
-1.50902 -0.62700 -0.22121
-1.50951 -0.62581 -0.22121
-1.50819 -0.62387 -0.22078
-1.51326 -0.62458 -0.22145
-1.58176 -0.53485 -0.22629
-1.57091 -0.52980 -0.22468
-1.56381 -0.52604 -0.22361
-1.55953 -0.52323 -0.22294
-1.55902 -0.52169 -0.22264
-1.56037 -0.52077 -0.22278
-1.56078 -0.51954 -0.22278
-1.56307 -0.51893 -0.22305
-1.56442 -0.51801 -0.22319
-1.56671 -0.51740 -0.22346
-1.57089 -0.51740 -0.22400
-1.57223 -0.51647 -0.22414
-1.57264 -0.51523 -0.22414
-1.57302 -0.51398 -0.22432
-1.57249 -0.51243 -0.22418
-1.56535 -0.50874 -0.22311
-1.56573 -0.50750 -0.22329
-1.56990 -0.50748 -0.22383
-1.56841 -0.50564 -0.22356
-1.56221 -0.50228 -0.22262
-1.58902 -0.50952 -0.22639
-1.51181 -0.65058 -0.22381
-1.49775 -0.64314 -0.22166
-1.50008 -0.64274 -0.22193
-1.50147 -0.64194 -0.22224
-1.50200 -0.64077 -0.22207
-1.50159 -0.63920 -0.22194
-1.50209 -0.63802 -0.22194
-1.50533 -0.63800 -0.22235
-1.51131 -0.63913 -0.22316
-1.51270 -0.63832 -0.22347
-1.51320 -0.63713 -0.22347
-1.51368 -0.63593 -0.22365
-1.51052 -0.63320 -0.22311
-1.50736 -0.63049 -0.22257
-1.50603 -0.62854 -0.22231
-1.50744 -0.62773 -0.22245
-1.50885 -0.62693 -0.22258
-1.50751 -0.62498 -0.22232
-1.50800 -0.62379 -0.22232
-1.58531 -0.53605 -0.22841
-1.57071 -0.52973 -0.22625
-1.56455 -0.52628 -0.22531
-1.55933 -0.52316 -0.22450
-1.55880 -0.52161 -0.22437
-1.56015 -0.52070 -0.22451
-1.56058 -0.51947 -0.22434
-1.56099 -0.51824 -0.22434
-1.56140 -0.51701 -0.22434
-1.56463 -0.51671 -0.22475
-1.57165 -0.51765 -0.22552
-1.57111 -0.51610 -0.22539
-1.57246 -0.51517 -0.22553
-1.57287 -0.51393 -0.22553
-1.57139 -0.51207 -0.22527
-1.56708 -0.50930 -0.22459
-1.56748 -0.50807 -0.22460
-1.56977 -0.50744 -0.22487
-1.57014 -0.50619 -0.22504
-1.56394 -0.50283 -0.22410
-1.57566 -0.50523 -0.22573
-1.51792 -0.65321 -0.22684
-1.50207 -0.64499 -0.22422
-1.49984 -0.64264 -0.22382
-1.50128 -0.64186 -0.22378
-1.50270 -0.64107 -0.22392
-1.50320 -0.63989 -0.22392
-1.50188 -0.63793 -0.22366
-1.50511 -0.63791 -0.22407
-1.51200 -0.63942 -0.22502
-1.51342 -0.63862 -0.22516
-1.51301 -0.63704 -0.22503
-1.51351 -0.63585 -0.22503
-1.51401 -0.63466 -0.22503
-1.51176 -0.63233 -0.22463
-1.50858 -0.62960 -0.22426
-1.50907 -0.62841 -0.22426
-1.50955 -0.62722 -0.22443
-1.50729 -0.62489 -0.22403
-1.50778 -0.62371 -0.22403
-1.58414 -0.53566 -0.23003
-1.57048 -0.52966 -0.22799
-1.56620 -0.52684 -0.22731
-1.56098 -0.52371 -0.22650
-1.55952 -0.52185 -0.22623
-1.56087 -0.52094 -0.22637
-1.56316 -0.52033 -0.22664
-1.56357 -0.51910 -0.22665
-1.56209 -0.51724 -0.22638
-1.56626 -0.51725 -0.22692
-1.57232 -0.51787 -0.22775
-1.57178 -0.51632 -0.22761
-1.57219 -0.51508 -0.22762
-1.57262 -0.51385 -0.22744
-1.56925 -0.51138 -0.22690
-1.56495 -0.50861 -0.22622
-1.56535 -0.50738 -0.22623
-1.56860 -0.50706 -0.22647
-1.56994 -0.50613 -0.22661
-1.56562 -0.50337 -0.22593
-1.57449 -0.50485 -0.22733
-1.50363 -0.64566 -0.22656
-1.49960 -0.64254 -0.22570
-1.50102 -0.64175 -0.22584
-1.50243 -0.64096 -0.22598
-1.50294 -0.63977 -0.22598
-1.50344 -0.63859 -0.22599
-1.50850 -0.63934 -0.22667
-1.51265 -0.63970 -0.22723
-1.51316 -0.63851 -0.22723
-1.51366 -0.63732 -0.22723
-1.51509 -0.63652 -0.22720
-1.51374 -0.63455 -0.22710
-1.50784 -0.63069 -0.22614
-1.50834 -0.62950 -0.22615
-1.50975 -0.62869 -0.22629
-1.51024 -0.62751 -0.22629
-1.50982 -0.62594 -0.22615
-1.50571 -0.62285 -0.22564
-1.51994 -0.62733 -0.22770
-1.60316 -0.54350 -0.23485
-1.57544 -0.53272 -0.23073
-1.56741 -0.52862 -0.22949
-1.56314 -0.52581 -0.22881
-1.55979 -0.52331 -0.22826
-1.55927 -0.52177 -0.22813
-1.56062 -0.52085 -0.22827
-1.56291 -0.52025 -0.22855
-1.56329 -0.51901 -0.22872
-1.56558 -0.51839 -0.22900
-1.56787 -0.51778 -0.22928
-1.57110 -0.51747 -0.22969
-1.57153 -0.51624 -0.22952
-1.57382 -0.51562 -0.22980
-1.57517 -0.51468 -0.22994
-1.57275 -0.51252 -0.22953
-1.56750 -0.50944 -0.22871
-1.56507 -0.50729 -0.22830
-1.56550 -0.50606 -0.22813
-1.56967 -0.50604 -0.22868
-1.56818 -0.50420 -0.22841
-1.56669 -0.50235 -0.22814
-1.60105 -0.51198 -0.23309
-1.50248 -0.64517 -0.22831
-1.49936 -0.64244 -0.22759
-1.50169 -0.64204 -0.22786
-1.50217 -0.64084 -0.22804
-1.50361 -0.64006 -0.22801
-1.50411 -0.63888 -0.22801
-1.50826 -0.63924 -0.22857
-1.51243 -0.63960 -0.22895
-1.51293 -0.63841 -0.22895
-1.51341 -0.63722 -0.22913
-1.51394 -0.63603 -0.22896
-1.51352 -0.63446 -0.22882
-1.50943 -0.63135 -0.22831
-1.50721 -0.62903 -0.22772
-1.50678 -0.62746 -0.22759
-1.50908 -0.62703 -0.22804
-1.50958 -0.62584 -0.22804
-1.50732 -0.62352 -0.22763
-1.51969 -0.62723 -0.22960
-1.59958 -0.54088 -0.23625
-1.57561 -0.53139 -0.23265
-1.56101 -0.52509 -0.23044
-1.55954 -0.52323 -0.23016
-1.56089 -0.52231 -0.23031
-1.56225 -0.52140 -0.23045
-1.56075 -0.51953 -0.23034
-1.56119 -0.51831 -0.23018
-1.56347 -0.51770 -0.23046
-1.56856 -0.51801 -0.23133
-1.57275 -0.51802 -0.23171
-1.57220 -0.51646 -0.23175
-1.57169 -0.51492 -0.23144
-1.57303 -0.51399 -0.23158
-1.57344 -0.51274 -0.23158
-1.56915 -0.50998 -0.23072
-1.56673 -0.50782 -0.23031
-1.56713 -0.50659 -0.23031
-1.57036 -0.50626 -0.23073
-1.56795 -0.50412 -0.23014
-1.56552 -0.50198 -0.22973
-1.59985 -0.51159 -0.23489
-1.52085 -0.65448 -0.23295
-1.50044 -0.64429 -0.22975
-1.50094 -0.64311 -0.22975
-1.50147 -0.64194 -0.22958
-1.50106 -0.64037 -0.22944
-1.50156 -0.63919 -0.22945
-1.50298 -0.63840 -0.22959
-1.50441 -0.63761 -0.22956
-1.50947 -0.63835 -0.23026
-1.51271 -0.63832 -0.23068
-1.51321 -0.63713 -0.23068
-1.51371 -0.63594 -0.23068
-1.51604 -0.63552 -0.23096
-1.51286 -0.63279 -0.23058
-1.50696 -0.62892 -0.22961
-1.50654 -0.62736 -0.22947
-1.51069 -0.62769 -0.23003
-1.50935 -0.62575 -0.22976
-1.50619 -0.62304 -0.22920
-1.52864 -0.63093 -0.23255
-1.58903 -0.53731 -0.23649
-1.57350 -0.53068 -0.23412
-1.56922 -0.52785 -0.23342
-1.56305 -0.52441 -0.23262
-1.56160 -0.52255 -0.23217
-1.56105 -0.52100 -0.23221
-1.56240 -0.52008 -0.23235
-1.56283 -0.51885 -0.23218
-1.56230 -0.51731 -0.23205
-1.56457 -0.51669 -0.23250
-1.56970 -0.51701 -0.23303
-1.57293 -0.51670 -0.23345
-1.57240 -0.51515 -0.23331
-1.57374 -0.51422 -0.23346
-1.57135 -0.51206 -0.23287
-1.56704 -0.50929 -0.23217
-1.56650 -0.50775 -0.23204
-1.56878 -0.50712 -0.23232
-1.57107 -0.50649 -0.23260
-1.56770 -0.50404 -0.23204
-1.56812 -0.50281 -0.23187
-1.52531 -0.65639 -0.23434
-1.50217 -0.64504 -0.23071
-1.49994 -0.64268 -0.23029
-1.50136 -0.64189 -0.23044
-1.50188 -0.64072 -0.23027
-1.50328 -0.63992 -0.23058
-1.50378 -0.63874 -0.23059
-1.50428 -0.63755 -0.23059
-1.50843 -0.63791 -0.23115
-1.51258 -0.63826 -0.23171
-1.51399 -0.63746 -0.23185
-1.51541 -0.63665 -0.23200
-1.51223 -0.63392 -0.23161
-1.50725 -0.63044 -0.23078
-1.50683 -0.62887 -0.23064
-1.50821 -0.62806 -0.23095
-1.51147 -0.62802 -0.23120
-1.51105 -0.62645 -0.23107
-1.50694 -0.62336 -0.23054
-1.52393 -0.62898 -0.23289
-1.58985 -0.53759 -0.23751
-1.57430 -0.53095 -0.23531
-1.56721 -0.52718 -0.23419
-1.56105 -0.52374 -0.23321
-1.55961 -0.52188 -0.23276
-1.56190 -0.52128 -0.23304
-1.56231 -0.52005 -0.23304
-1.56272 -0.51881 -0.23305
-1.56501 -0.51820 -0.23333
-1.57014 -0.51853 -0.23386
-1.57337 -0.51822 -0.23428
-1.57286 -0.51668 -0.23397
-1.57136 -0.51481 -0.23387
-1.57365 -0.51419 -0.23415
-1.57217 -0.51233 -0.23387
-1.56692 -0.50925 -0.23304
-1.56544 -0.50741 -0.23276
-1.56867 -0.50709 -0.23318
-1.57097 -0.50646 -0.23329
-1.56758 -0.50400 -0.23291
-1.56609 -0.50216 -0.23263
-1.60138 -0.51208 -0.23782
-1.51876 -0.65358 -0.23475
-1.49926 -0.64379 -0.23166
-1.49885 -0.64222 -0.23152
-1.50118 -0.64182 -0.23181
-1.50259 -0.64102 -0.23195
-1.50310 -0.63984 -0.23195
-1.50358 -0.63865 -0.23213
-1.50408 -0.63747 -0.23213
-1.50823 -0.63783 -0.23270
-1.51238 -0.63818 -0.23326
-1.51379 -0.63737 -0.23341
-1.51516 -0.63655 -0.23390
-1.51296 -0.63423 -0.23313
-1.50887 -0.63112 -0.23260
-1.50754 -0.62917 -0.23232
-1.50803 -0.62798 -0.23233
-1.50946 -0.62718 -0.23230
-1.50904 -0.62562 -0.23216
-1.50770 -0.62367 -0.23188
-1.52558 -0.62966 -0.23456
-1.59111 -0.53941 -0.23920
-1.57184 -0.53150 -0.23624
-1.56569 -0.52804 -0.23526
-1.56423 -0.52617 -0.23498
-1.56089 -0.52368 -0.23442
-1.55851 -0.52151 -0.23383
-1.55986 -0.52060 -0.23397
-1.56212 -0.51999 -0.23443
-1.55974 -0.51782 -0.23383
-1.56205 -0.51722 -0.23395
-1.56622 -0.51723 -0.23451
-1.56944 -0.51693 -0.23494
-1.56983 -0.51568 -0.23511
-1.56929 -0.51413 -0.23498
-1.56876 -0.51259 -0.23484
-1.56725 -0.51073 -0.23473
-1.56577 -0.50888 -0.23445
-1.56431 -0.50704 -0.23400
-1.56565 -0.50611 -0.23415
-1.56697 -0.50517 -0.23446
-1.56548 -0.50333 -0.23418
-1.56588 -0.50209 -0.23419
-1.58325 -0.50629 -0.23673
-1.62059 -0.47904 -0.24094
-1.61907 -0.47720 -0.24066
-1.61945 -0.47592 -0.24066
-1.61980 -0.47464 -0.24084
-1.62017 -0.47336 -0.24084
-1.61674 -0.47097 -0.24028
-1.61714 -0.46970 -0.24011
-1.61846 -0.46870 -0.24025
-1.61787 -0.46715 -0.24011
-1.61634 -0.46533 -0.23983
-1.61575 -0.46378 -0.23969
-1.61612 -0.46250 -0.23970
-1.61746 -0.46151 -0.23967
-1.61592 -0.45969 -0.23939
-1.61437 -0.45787 -0.23911
-1.61473 -0.45660 -0.23911
-1.61509 -0.45533 -0.23911
-1.61548 -0.45406 -0.23894
-1.61869 -0.45359 -0.23937
-1.61905 -0.45231 -0.23937
-1.61941 -0.45103 -0.23937
-1.50585 -0.64802 -0.23416
-1.49817 -0.64332 -0.23289
-1.49867 -0.64214 -0.23289
-1.50007 -0.64134 -0.23321
-1.50148 -0.64055 -0.23335
-1.50198 -0.63937 -0.23336
-1.50249 -0.63819 -0.23336
-1.50390 -0.63739 -0.23350
-1.50987 -0.63852 -0.23436
-1.51130 -0.63773 -0.23433
-1.51178 -0.63653 -0.23450
-1.51231 -0.63535 -0.23433
-1.51372 -0.63454 -0.23448
-1.51148 -0.63221 -0.23406
-1.50740 -0.62911 -0.23335
-1.50792 -0.62793 -0.23318
-1.51022 -0.62750 -0.23364
-1.51165 -0.62670 -0.23361
-1.51031 -0.62475 -0.23333
-1.50895 -0.62280 -0.23323
-1.52958 -0.62991 -0.23634
-1.57467 -0.53800 -0.23816
-1.56950 -0.53485 -0.23714
-1.56336 -0.53138 -0.23615
-1.55722 -0.52792 -0.23516
-1.55482 -0.52574 -0.23474
-1.55523 -0.52451 -0.23474
-1.55471 -0.52297 -0.23460
-1.55512 -0.52175 -0.23461
-1.55647 -0.52083 -0.23475
-1.55876 -0.52023 -0.23504
-1.55729 -0.51838 -0.23476
-1.55582 -0.51652 -0.23448
-1.55716 -0.51561 -0.23462
-1.55942 -0.51499 -0.23508
-1.56075 -0.51406 -0.23540
-1.56303 -0.51345 -0.23568
-1.56438 -0.51252 -0.23583
-1.56478 -0.51129 -0.23583
-1.56048 -0.50852 -0.23513
-1.55994 -0.50698 -0.23499
-1.56033 -0.50575 -0.23499
-1.56262 -0.50513 -0.23528
-1.56301 -0.50390 -0.23528
-1.56153 -0.50206 -0.23500
-1.56289 -0.50113 -0.23497
-1.57177 -0.50262 -0.23625
-1.58159 -0.50438 -0.23767
-1.58859 -0.50523 -0.23866
-1.58994 -0.50428 -0.23881
-1.58939 -0.50273 -0.23867
-1.58695 -0.50058 -0.23825
-1.58640 -0.49903 -0.23811
-1.58868 -0.49837 -0.23839
-1.58908 -0.49712 -0.23840
-1.58852 -0.49557 -0.23826
-1.58891 -0.49432 -0.23826
-1.58930 -0.49306 -0.23827
-1.58872 -0.49151 -0.23830
-1.58913 -0.49026 -0.23813
-1.58949 -0.48900 -0.23831
-1.58893 -0.48746 -0.23817
-1.58932 -0.48620 -0.23817
-1.58970 -0.48495 -0.23817
-1.59008 -0.48369 -0.23818
-1.59044 -0.48243 -0.23835
-1.59082 -0.48118 -0.23836
-1.58930 -0.47935 -0.23808
-1.58968 -0.47809 -0.23808
-1.59100 -0.47712 -0.23822
-1.59233 -0.47615 -0.23837
-1.59175 -0.47461 -0.23823
-1.59023 -0.47279 -0.23795
-1.59155 -0.47182 -0.23809
-1.59194 -0.47057 -0.23792
-1.59136 -0.46903 -0.23778
-1.59176 -0.46779 -0.23761
-1.59210 -0.46652 -0.23779
-1.59154 -0.46500 -0.23748
-1.59096 -0.46346 -0.23734
-1.59227 -0.46248 -0.23748
-1.59361 -0.46151 -0.23745
-1.59490 -0.46052 -0.23777
-1.59527 -0.45926 -0.23777
-1.59468 -0.45773 -0.23764
-1.59504 -0.45647 -0.23764
-1.59542 -0.45522 -0.23747
-1.59575 -0.45395 -0.23764
-1.59611 -0.45270 -0.23765
-1.59742 -0.45171 -0.23779
-1.59587 -0.44991 -0.23751
-1.59432 -0.44811 -0.23723
-1.59846 -0.44792 -0.23797
-1.59881 -0.44665 -0.23798
-1.59437 -0.44406 -0.23744
-1.62145 -0.45022 -0.24125
-1.51462 -0.65462 -0.23727
-1.50877 -0.65068 -0.23628
-1.50112 -0.64599 -0.23483
-1.49708 -0.64285 -0.23412
-1.49667 -0.64128 -0.23398
-1.49809 -0.64050 -0.23412
-1.49950 -0.63970 -0.23427
-1.49818 -0.63775 -0.23399
-1.49777 -0.63618 -0.23385
-1.50283 -0.63694 -0.23456
-1.50697 -0.63730 -0.23514
-1.50839 -0.63650 -0.23528
-1.50889 -0.63531 -0.23528
-1.51030 -0.63451 -0.23543
-1.50897 -0.63255 -0.23515
-1.50490 -0.62946 -0.23444
-1.50446 -0.62788 -0.23447
-1.50495 -0.62670 -0.23447
-1.50544 -0.62551 -0.23447
-1.50594 -0.62433 -0.23448
-1.50457 -0.62238 -0.23437
-1.50689 -0.62195 -0.23466
-1.52202 -0.62679 -0.23694
-1.54888 -0.59412 -0.23871
-1.54934 -0.59290 -0.23871
-1.55073 -0.59203 -0.23886
-1.55120 -0.59081 -0.23886
-1.55074 -0.58924 -0.23872
-1.55122 -0.58803 -0.23855
-1.55168 -0.58681 -0.23855
-1.55029 -0.58489 -0.23827
-1.54890 -0.58297 -0.23799
-1.54933 -0.58174 -0.23816
-1.55072 -0.58087 -0.23831
-1.55210 -0.58000 -0.23845
-1.55165 -0.57844 -0.23814
-1.55118 -0.57688 -0.23800
-1.54978 -0.57496 -0.23772
-1.55021 -0.57373 -0.23790
-1.55251 -0.57320 -0.23818
-1.55389 -0.57231 -0.23833
-1.55342 -0.57074 -0.23819
-1.55201 -0.56884 -0.23791
-1.55338 -0.56795 -0.23805
-1.55383 -0.56673 -0.23806
-1.55335 -0.56516 -0.23792
-1.55379 -0.56394 -0.23792
-1.55514 -0.56304 -0.23824
-1.55466 -0.56147 -0.23810
-1.55510 -0.56025 -0.23810
-1.55461 -0.55869 -0.23796
-1.55412 -0.55712 -0.23782
-1.55549 -0.55623 -0.23797
-1.55592 -0.55500 -0.23797
-1.55543 -0.55344 -0.23783
-1.55586 -0.55222 -0.23783
-1.55632 -0.55100 -0.23766
-1.55676 -0.54977 -0.23767
-1.55626 -0.54821 -0.23753
-1.55671 -0.54699 -0.23736
-1.55714 -0.54576 -0.23736
-1.55757 -0.54454 -0.23736
-1.55800 -0.54331 -0.23736
-1.55845 -0.54209 -0.23719
-1.55979 -0.54117 -0.23751
-1.55928 -0.53962 -0.23737
-1.55783 -0.53774 -0.23709
-1.55639 -0.53587 -0.23681
-1.55774 -0.53496 -0.23696
-1.55723 -0.53341 -0.23682
-1.55481 -0.53121 -0.23656
-1.55242 -0.52903 -0.23614
-1.55284 -0.52780 -0.23614
-1.55136 -0.52594 -0.23603
-1.54992 -0.52409 -0.23558
-1.55033 -0.52286 -0.23558
-1.54978 -0.52131 -0.23561
-1.55021 -0.52010 -0.23544
-1.55156 -0.51919 -0.23559
-1.55383 -0.51858 -0.23605
-1.55423 -0.51736 -0.23605
-1.55370 -0.51582 -0.23591
-1.55413 -0.51460 -0.23574
-1.55736 -0.51431 -0.23617
-1.55870 -0.51339 -0.23632
-1.55908 -0.51215 -0.23650
-1.55857 -0.51062 -0.23618
-1.55803 -0.50908 -0.23604
-1.55751 -0.50755 -0.23573
-1.55789 -0.50632 -0.23591
-1.56017 -0.50570 -0.23619
-1.56057 -0.50447 -0.23620
-1.56099 -0.50324 -0.23603
-1.56136 -0.50200 -0.23620
-1.56081 -0.50047 -0.23606
-1.56121 -0.49924 -0.23607
-1.56443 -0.49891 -0.23650
-1.56860 -0.49887 -0.23707
-1.56993 -0.49794 -0.23722
-1.57030 -0.49669 -0.23739
-1.56975 -0.49515 -0.23725
-1.57011 -0.49391 -0.23743
-1.57050 -0.49267 -0.23743
-1.57089 -0.49143 -0.23743
-1.57130 -0.49019 -0.23726
-1.57166 -0.48895 -0.23744
-1.57207 -0.48772 -0.23727
-1.57245 -0.48647 -0.23727
-1.57284 -0.48523 -0.23728
-1.57320 -0.48398 -0.23745
-1.57263 -0.48245 -0.23731
-1.57398 -0.48151 -0.23728
-1.57436 -0.48027 -0.23729
-1.57474 -0.47902 -0.23729
-1.57511 -0.47778 -0.23729
-1.57549 -0.47654 -0.23730
-1.57589 -0.47530 -0.23713
-1.57626 -0.47406 -0.23713
-1.57569 -0.47253 -0.23699
-1.57701 -0.47157 -0.23714
-1.57738 -0.47033 -0.23714
-1.57775 -0.46908 -0.23714
-1.57812 -0.46784 -0.23714
-1.58039 -0.46715 -0.23743
-1.58265 -0.46647 -0.23772
-1.58302 -0.46522 -0.23772
-1.58149 -0.46341 -0.23744
-1.58185 -0.46216 -0.23744
-1.58221 -0.46092 -0.23745
-1.58255 -0.45966 -0.23762
-1.58291 -0.45841 -0.23763
-1.58328 -0.45716 -0.23763
-1.58363 -0.45591 -0.23763
-1.58397 -0.45466 -0.23781
-1.58625 -0.45396 -0.23792
-1.58661 -0.45271 -0.23792
-1.58697 -0.45145 -0.23793
-1.58637 -0.44993 -0.23779
-1.58768 -0.44895 -0.23793
-1.58994 -0.44823 -0.23822
-1.59029 -0.44698 -0.23822
-1.58969 -0.44546 -0.23808
-1.59194 -0.44474 -0.23837
-1.58943 -0.44268 -0.23795
-1.58311 -0.43958 -0.23695
-1.61972 -0.44837 -0.24220
-1.49648 -0.69482 -0.23804
-1.49613 -0.69322 -0.23790
-1.49667 -0.69205 -0.23790
-1.49634 -0.69047 -0.23759
-1.49922 -0.68894 -0.23788
-1.49794 -0.68693 -0.23777
-1.49848 -0.68575 -0.23777
-1.49955 -0.68340 -0.23778
-1.49919 -0.68181 -0.23764
-1.49882 -0.68022 -0.23750
-1.49933 -0.67903 -0.23767
-1.49986 -0.67786 -0.23768
-1.50310 -0.67790 -0.23811
-1.50363 -0.67671 -0.23811
-1.50146 -0.67431 -0.23769
-1.50196 -0.67312 -0.23786
-1.50252 -0.67195 -0.23769
-1.50304 -0.67077 -0.23769
-1.50357 -0.66959 -0.23770
-1.50410 -0.66840 -0.23770
-1.50462 -0.66722 -0.23770
-1.50514 -0.66604 -0.23771
-1.50567 -0.66485 -0.23771
-1.50621 -0.66368 -0.23754
-1.50855 -0.66329 -0.23783
-1.50816 -0.66171 -0.23769
-1.50775 -0.66011 -0.23772
-1.50827 -0.65893 -0.23772
-1.50609 -0.65656 -0.23713
-1.50479 -0.65459 -0.23684
-1.50167 -0.65183 -0.23627
-1.49582 -0.64789 -0.23528
-1.49361 -0.64554 -0.23485
-1.49409 -0.64435 -0.23503
-1.49187 -0.64200 -0.23460
-1.49146 -0.64044 -0.23446
-1.49288 -0.63966 -0.23460
-1.49520 -0.63926 -0.23489
-1.49659 -0.63846 -0.23521
-1.49620 -0.63691 -0.23490
-1.49486 -0.63495 -0.23479
-1.49444 -0.63338 -0.23465
-1.49859 -0.63375 -0.23522
-1.50089 -0.63333 -0.23568
-1.50141 -0.63216 -0.23551
-1.50099 -0.63060 -0.23537
-1.50057 -0.62903 -0.23523
-1.49924 -0.62709 -0.23495
-1.49882 -0.62553 -0.23481
-1.50022 -0.62473 -0.23495
-1.50257 -0.62432 -0.23507
-1.50397 -0.62351 -0.23522
-1.50080 -0.62082 -0.23465
-1.50312 -0.62039 -0.23494
-1.51003 -0.62186 -0.23577
-1.51691 -0.62329 -0.23695
-1.51834 -0.62248 -0.23692
-1.51699 -0.62054 -0.23664
-1.51565 -0.61860 -0.23636
-1.51797 -0.61815 -0.23664
-1.51937 -0.61733 -0.23679
-1.51985 -0.61614 -0.23679
-1.52034 -0.61494 -0.23680
-1.52174 -0.61411 -0.23694
-1.52128 -0.61254 -0.23697
-1.52176 -0.61134 -0.23698
-1.52224 -0.61015 -0.23698
-1.52272 -0.60895 -0.23698
-1.52136 -0.60702 -0.23670
-1.52089 -0.60544 -0.23673
-1.52321 -0.60498 -0.23702
-1.52368 -0.60378 -0.23702
-1.52324 -0.60222 -0.23688
-1.52279 -0.60066 -0.23674
-1.52418 -0.59982 -0.23689
-1.52465 -0.59862 -0.23689
-1.52607 -0.59779 -0.23686
-1.52746 -0.59695 -0.23701
-1.52698 -0.59538 -0.23704
-1.52563 -0.59347 -0.23659
-1.52701 -0.59263 -0.23673
-1.52840 -0.59179 -0.23688
-1.52797 -0.59023 -0.23657
-1.52751 -0.58868 -0.23643
-1.52795 -0.58747 -0.23660
-1.52841 -0.58626 -0.23661
-1.52979 -0.58542 -0.23675
-1.53025 -0.58421 -0.23675
-1.53163 -0.58336 -0.23690
-1.53302 -0.58251 -0.23705
-1.53348 -0.58130 -0.23705
-1.53301 -0.57974 -0.23691
-1.53161 -0.57784 -0.23663
-1.53206 -0.57663 -0.23663
-1.53342 -0.57577 -0.23695
-1.53480 -0.57491 -0.23709
-1.53432 -0.57335 -0.23695
-1.53477 -0.57215 -0.23695
-1.53522 -0.57094 -0.23696
-1.53472 -0.56938 -0.23699
-1.53424 -0.56782 -0.23685
-1.53376 -0.56627 -0.23671
-1.53699 -0.56608 -0.23714
-1.53744 -0.56487 -0.23714
-1.53695 -0.56332 -0.23700
-1.53554 -0.56143 -0.23672
-1.53507 -0.55988 -0.23641
-1.53644 -0.55901 -0.23655
-1.53781 -0.55814 -0.23670
-1.53918 -0.55726 -0.23685
-1.53964 -0.55605 -0.23668
-1.54008 -0.55484 -0.23668
-1.54238 -0.55429 -0.23697
-1.54189 -0.55274 -0.23683
-1.54048 -0.55087 -0.23637
-1.54091 -0.54965 -0.23638
-1.54226 -0.54876 -0.23669
-1.54455 -0.54820 -0.23698
-1.54312 -0.54632 -0.23670
-1.54355 -0.54511 -0.23670
-1.54305 -0.54356 -0.23656
-1.54347 -0.54234 -0.23657
-1.54483 -0.54145 -0.23671
-1.54524 -0.54022 -0.23689
-1.54564 -0.53900 -0.23706
-1.54606 -0.53778 -0.23706
-1.54651 -0.53656 -0.23690
-1.54787 -0.53567 -0.23704
-1.54642 -0.53380 -0.23676
-1.54590 -0.53226 -0.23662
-1.54726 -0.53136 -0.23676
-1.54861 -0.53046 -0.23691
-1.54807 -0.52891 -0.23694
-1.54757 -0.52738 -0.23663
-1.54893 -0.52647 -0.23678
-1.55028 -0.52557 -0.23692
-1.54975 -0.52403 -0.23678
-1.54829 -0.52217 -0.23650
-1.54873 -0.52096 -0.23633
-1.55099 -0.52036 -0.23679
-1.55236 -0.51946 -0.23676
-1.55275 -0.51823 -0.23694
-1.55318 -0.51701 -0.23677
-1.55452 -0.51609 -0.23692
-1.55585 -0.51517 -0.23723
-1.55721 -0.51426 -0.23721
-1.55666 -0.51271 -0.23724
-1.55706 -0.51149 -0.23724
-1.55840 -0.51057 -0.23739
-1.55880 -0.50934 -0.23739
-1.55638 -0.50719 -0.23697
-1.55676 -0.50595 -0.23714
