-1.76259 -0.95548 -0.41789
-1.76334 -0.95409 -0.41789
-1.76406 -0.95268 -0.41811
-1.76481 -0.95128 -0.41811
-1.76560 -0.94991 -0.41790
-1.76716 -0.94897 -0.41832
-1.76877 -0.94804 -0.41853
-1.76865 -0.94619 -0.41833
-1.76857 -0.94436 -0.41792
-1.76931 -0.94297 -0.41792
-1.77264 -0.94296 -0.41854
-1.76538 -0.93376 -0.41609
-1.77021 -0.93099 -0.41650
-1.76893 -0.92500 -0.41569
-1.76961 -0.92359 -0.41591
-1.77207 -0.92310 -0.41632
-1.77367 -0.92216 -0.41653
-1.77696 -0.92210 -0.41736
-1.77768 -0.92070 -0.41736
-1.77753 -0.91885 -0.41716
-1.78086 -0.91880 -0.41778
-1.78763 -0.92052 -0.41943
-1.78396 -0.91686 -0.41863
-1.78385 -0.91503 -0.41821
-1.78461 -0.91365 -0.41800
-1.78794 -0.91358 -0.41862
-1.78953 -0.91262 -0.41882
-1.78937 -0.91077 -0.41862
-1.79096 -0.90981 -0.41883
-1.79167 -0.90840 -0.41883
-1.79238 -0.90699 -0.41884
-1.79310 -0.90559 -0.41884
-1.79381 -0.90418 -0.41885
-1.79455 -0.90279 -0.41863
-1.79614 -0.90182 -0.41884
-1.79684 -0.90041 -0.41885
-1.79843 -0.89943 -0.41905
-1.80001 -0.89845 -0.41926
-1.80071 -0.89704 -0.41926
-1.80137 -0.89560 -0.41948
-1.80208 -0.89419 -0.41949
-1.80278 -0.89277 -0.41949
-1.80260 -0.89092 -0.41929
-1.80154 -0.88864 -0.41889
-1.80132 -0.88677 -0.41890
-1.80206 -0.88538 -0.41869
-1.80359 -0.88437 -0.41911
-1.80428 -0.88295 -0.41912
-1.80498 -0.88154 -0.41912
-1.80567 -0.88012 -0.41912
-1.80636 -0.87870 -0.41913
-1.80701 -0.87726 -0.41935
-1.80773 -0.87586 -0.41913
-1.80842 -0.87444 -0.41914
-1.80822 -0.87259 -0.41894
-1.80803 -0.87075 -0.41874
-1.81047 -0.87017 -0.41915
-1.81292 -0.86960 -0.41956
-1.81188 -0.86735 -0.41894
-1.81432 -0.86677 -0.41935
-1.81677 -0.86618 -0.41977
-1.81749 -0.86478 -0.41956
-1.81817 -0.86335 -0.41956
-1.81973 -0.86234 -0.41977
-1.82041 -0.86091 -0.41977
-1.82020 -0.85906 -0.41957
-1.82264 -0.85846 -0.41998
-1.82420 -0.85745 -0.42019
-1.82399 -0.85560 -0.41999
-1.82288 -0.85334 -0.41959
-1.82529 -0.85271 -0.42021
-1.82769 -0.85209 -0.42084
-1.82747 -0.85024 -0.42064
-1.82725 -0.84839 -0.42044
-1.82880 -0.84737 -0.42065
-1.83035 -0.84634 -0.42086
-1.83102 -0.84490 -0.42086
-1.83168 -0.84346 -0.42086
-1.83323 -0.84243 -0.42107
-1.83389 -0.84099 -0.42107
-1.83455 -0.83955 -0.42108
-1.83436 -0.83772 -0.42066
-1.83497 -0.83626 -0.42088
-1.83474 -0.83441 -0.42068
-1.83539 -0.83297 -0.42069
-1.83519 -0.83114 -0.42027
-1.83674 -0.83010 -0.42048
-1.83828 -0.82906 -0.42068
-1.83893 -0.82762 -0.42069
-1.84048 -0.82657 -0.42090
-1.84112 -0.82512 -0.42090
-1.84181 -0.82369 -0.42069
-1.84242 -0.82222 -0.42091
-1.84217 -0.82038 -0.42071
-1.84281 -0.81893 -0.42071
-1.84431 -0.81786 -0.42114
-1.84674 -0.81720 -0.42155
-1.84738 -0.81574 -0.42155
-1.84802 -0.81429 -0.42156
-1.84952 -0.81321 -0.42198
-1.85016 -0.81176 -0.42198
-1.85079 -0.81030 -0.42199
-1.85326 -0.80965 -0.42218
-1.85386 -0.80817 -0.42240
-1.85449 -0.80671 -0.42241
-1.85423 -0.80486 -0.42221
-1.85486 -0.80340 -0.42221
-1.85639 -0.80233 -0.42242
-1.85702 -0.80087 -0.42242
-1.85769 -0.79943 -0.42221
-1.85922 -0.79835 -0.42242
-1.86074 -0.79728 -0.42263
-1.86317 -0.79658 -0.42304
-1.86379 -0.79512 -0.42304
-1.86356 -0.79328 -0.42262
-1.86238 -0.79105 -0.42222
-1.86300 -0.78959 -0.42223
-1.86632 -0.78926 -0.42284
-1.86514 -0.78704 -0.42244
-1.86756 -0.78633 -0.42285
-1.86908 -0.78524 -0.42306
-1.86879 -0.78339 -0.42286
-1.86941 -0.78192 -0.42286
-1.87183 -0.78120 -0.42327
-1.86788 -0.77783 -0.42247
-1.86849 -0.77636 -0.42247
-1.87995 -0.77939 -0.42493
-1.84619 -0.76369 -0.41717
-1.69120 -1.44722 -0.46527
-1.68936 -1.44335 -0.46445
-1.70449 -1.42414 -0.46359
-1.71351 -1.40222 -0.46293
-1.71612 -1.40211 -0.46334
-1.72026 -1.40324 -0.46416
-1.72060 -1.40127 -0.46396
-1.72022 -1.39872 -0.46332
-1.72360 -1.39921 -0.46394
-1.72549 -1.39851 -0.46391
-1.72579 -1.39651 -0.46395
-1.72612 -1.39453 -0.46375
-1.72798 -1.39379 -0.46396
-1.72835 -1.39185 -0.46352
-1.72788 -1.38924 -0.46335
-1.72824 -1.38730 -0.46291
-1.72700 -1.38407 -0.46254
-1.70179 -0.99683 -0.41290
-1.72370 -1.00784 -0.41802
-1.72533 -1.00697 -0.41823
-1.72782 -1.00659 -0.41865
-1.72946 -1.00572 -0.41885
-1.72856 -1.00337 -0.41845
-1.72931 -1.00199 -0.41867
-1.73179 -1.00160 -0.41908
-1.73262 -1.00026 -0.41887
-1.73167 -0.99789 -0.41868
-1.73246 -0.99652 -0.41868
-1.73494 -0.99613 -0.41909
-1.73569 -0.99474 -0.41931
-1.73647 -0.99337 -0.41932
-1.73810 -0.99248 -0.41952
-1.73888 -0.99111 -0.41953
-1.73456 -0.98684 -0.41830
-1.73534 -0.98547 -0.41830
-1.73611 -0.98410 -0.41831
-1.73518 -0.98176 -0.41790
-1.73766 -0.98136 -0.41832
-1.73933 -0.98049 -0.41831
-1.73839 -0.97815 -0.41791
-1.73746 -0.97583 -0.41750
-1.74079 -0.97589 -0.41812
-1.74070 -0.97404 -0.41792
-1.73976 -0.97171 -0.41751
-1.74305 -0.97174 -0.41834
-1.74642 -0.97182 -0.41875
-1.74547 -0.96949 -0.41834
-1.74624 -0.96811 -0.41835
-1.74957 -0.96816 -0.41896
-1.74947 -0.96630 -0.41876
-1.75024 -0.96492 -0.41877
-1.75271 -0.96448 -0.41918
-1.75429 -0.96355 -0.41960
-1.75505 -0.96217 -0.41961
-1.75581 -0.96078 -0.41961
-1.75742 -0.95986 -0.41982
-1.75818 -0.95848 -0.41982
-1.75807 -0.95662 -0.41962
-1.75879 -0.95521 -0.41984
-1.76126 -0.95476 -0.42025
-1.76201 -0.95337 -0.42026
-1.76276 -0.95198 -0.42026
-1.76351 -0.95059 -0.42027
-1.76426 -0.94919 -0.42027
-1.76418 -0.94737 -0.41985
-1.76406 -0.94552 -0.41965
-1.76480 -0.94413 -0.41966
-1.76641 -0.94320 -0.41986
-1.76891 -0.94276 -0.42007
-1.77225 -0.94275 -0.42068
-1.77039 -0.93998 -0.42007
-1.76680 -0.93629 -0.41905
-1.76840 -0.93536 -0.41926
-1.77091 -0.93491 -0.41946
-1.77251 -0.93397 -0.41967
-1.77060 -0.93119 -0.41927
-1.76964 -0.92891 -0.41865
-1.77037 -0.92752 -0.41865
-1.77279 -0.92702 -0.41928
-1.77438 -0.92608 -0.41949
-1.77424 -0.92423 -0.41929
-1.77579 -0.92327 -0.41971
-1.77648 -0.92185 -0.41993
-1.77807 -0.92090 -0.42014
-1.77879 -0.91951 -0.42014
-1.77951 -0.91811 -0.42015
-1.77936 -0.91626 -0.41995
-1.78012 -0.91488 -0.41973
-1.78341 -0.91480 -0.42057
-1.78500 -0.91385 -0.42078
-1.78663 -0.91291 -0.42077
-1.78734 -0.91151 -0.42078
-1.78719 -0.90966 -0.42057
-1.78965 -0.90914 -0.42099
-1.79036 -0.90774 -0.42099
-1.79107 -0.90633 -0.42100
-1.79182 -0.90494 -0.42079
-1.79340 -0.90397 -0.42099
-1.79411 -0.90256 -0.42100
-1.79482 -0.90116 -0.42100
-1.79549 -0.89972 -0.42122
-1.79619 -0.89831 -0.42122
-1.79694 -0.89692 -0.42101
-1.79760 -0.89549 -0.42123
-1.79830 -0.89408 -0.42124
-1.79900 -0.89266 -0.42124
-1.79883 -0.89082 -0.42104
-1.79952 -0.88940 -0.42104
-1.80106 -0.88840 -0.42146
-1.80263 -0.88742 -0.42167
-1.80245 -0.88557 -0.42147
-1.80227 -0.88372 -0.42127
-1.80296 -0.88231 -0.42127
-1.80365 -0.88089 -0.42128
-1.80522 -0.87990 -0.42149
-1.80591 -0.87848 -0.42149
-1.80660 -0.87706 -0.42150
-1.80733 -0.87566 -0.42128
-1.80890 -0.87467 -0.42149
-1.80866 -0.87280 -0.42151
-1.80850 -0.87098 -0.42109
-1.81007 -0.86998 -0.42130
-1.81163 -0.86898 -0.42151
-1.81231 -0.86756 -0.42151
-1.81388 -0.86655 -0.42172
-1.81544 -0.86555 -0.42193
-1.81612 -0.86412 -0.42193
-1.81684 -0.86272 -0.42172
-1.81663 -0.86087 -0.42152
-1.81819 -0.85986 -0.42173
-1.81975 -0.85885 -0.42194
-1.82042 -0.85742 -0.42194
-1.82105 -0.85597 -0.42216
-1.82084 -0.85412 -0.42196
-1.82239 -0.85311 -0.42217
-1.82306 -0.85167 -0.42217
-1.82373 -0.85024 -0.42218
-1.82440 -0.84881 -0.42218
-1.82680 -0.84818 -0.42281
-1.82746 -0.84674 -0.42281
-1.82813 -0.84531 -0.42282
-1.82875 -0.84385 -0.42304
-1.83030 -0.84283 -0.42325
-1.83100 -0.84141 -0.42303
-1.83081 -0.83958 -0.42262
-1.83143 -0.83812 -0.42284
-1.83297 -0.83709 -0.42305
-1.83456 -0.83607 -0.42304
-1.83611 -0.83504 -0.42325
-1.83498 -0.83278 -0.42284
-1.83470 -0.83092 -0.42285
-1.83629 -0.82990 -0.42285
-1.83783 -0.82886 -0.42306
-1.83848 -0.82741 -0.42306
-1.83913 -0.82597 -0.42307
-1.83888 -0.82412 -0.42286
-1.83953 -0.82267 -0.42287
-1.84103 -0.82161 -0.42329
-1.84261 -0.82057 -0.42329
-1.84411 -0.81950 -0.42371
-1.84386 -0.81765 -0.42351
-1.84364 -0.81583 -0.42309
-1.84514 -0.81475 -0.42352
-1.84574 -0.81328 -0.42374
-1.84637 -0.81183 -0.42374
-1.84791 -0.81077 -0.42395
-1.84944 -0.80971 -0.42416
-1.85093 -0.80863 -0.42458
-1.85161 -0.80719 -0.42437
-1.85224 -0.80573 -0.42438
-1.85287 -0.80427 -0.42438
-1.85350 -0.80282 -0.42438
-1.85413 -0.80136 -0.42439
-1.85476 -0.79990 -0.42439
-1.85543 -0.79846 -0.42418
-1.85696 -0.79739 -0.42439
-1.85848 -0.79631 -0.42460
-1.85911 -0.79485 -0.42460
-1.86063 -0.79377 -0.42481
-1.86130 -0.79232 -0.42460
-1.85922 -0.78971 -0.42399
-1.86164 -0.78901 -0.42440
-1.86406 -0.78831 -0.42481
-1.86468 -0.78684 -0.42482
-1.86530 -0.78538 -0.42482
-1.86772 -0.78466 -0.42524
-1.86924 -0.78357 -0.42545
-1.86805 -0.78135 -0.42504
-1.86771 -0.77948 -0.42505
-1.87104 -0.77914 -0.42567
-1.86984 -0.77692 -0.42527
-1.86770 -0.77431 -0.42487
-1.86378 -0.77097 -0.42385
-2.06643 -0.59314 -0.45262
-2.07630 -0.59420 -0.45468
-2.08053 -0.59364 -0.45551
-2.08665 -0.59360 -0.45675
-2.09281 -0.59357 -0.45776
-2.09328 -0.59192 -0.45776
-2.09374 -0.59027 -0.45777
-2.09986 -0.59020 -0.45901
-2.10975 -0.59119 -0.46107
-2.11210 -0.59005 -0.46148
-2.10313 -0.58576 -0.45943
-1.71138 -1.40273 -0.46438
-1.71173 -1.40076 -0.46418
-1.71654 -1.39796 -0.46460
-1.71915 -1.39785 -0.46501
-1.71949 -1.39588 -0.46481
-1.71906 -1.39330 -0.46441
-1.72092 -1.39256 -0.46462
-1.72277 -1.39182 -0.46482
-1.72234 -1.38924 -0.46442
-1.72110 -1.38602 -0.46404
-1.72371 -1.38589 -0.46446
-1.72408 -1.38395 -0.46402
-1.72211 -1.38015 -0.46320
-1.72315 -1.37877 -0.46344
-1.72500 -1.37802 -0.46365
-1.73515 -1.35735 -0.46244
-1.73390 -1.35418 -0.46183
-1.72419 -1.00813 -0.42015
-1.72330 -1.00578 -0.41974
-1.72574 -1.00538 -0.42037
-1.72738 -1.00451 -0.42058
-1.72817 -1.00315 -0.42059
-1.72896 -1.00178 -0.42059
-1.72975 -1.00042 -0.42059
-1.73050 -0.99903 -0.42081
-1.73128 -0.99767 -0.42081
-1.73207 -0.99630 -0.42082
-1.73285 -0.99493 -0.42082
-1.73364 -0.99357 -0.42083
-1.73361 -0.99173 -0.42041
-1.73354 -0.98988 -0.42021
-1.73347 -0.98803 -0.42001
-1.73425 -0.98666 -0.42001
-1.73503 -0.98529 -0.42001
-1.73665 -0.98440 -0.42022
-1.73662 -0.98257 -0.41981
-1.73739 -0.98120 -0.41981
-1.73901 -0.98031 -0.42002
-1.73893 -0.97846 -0.41982
-1.73885 -0.97661 -0.41962
-1.73962 -0.97524 -0.41962
-1.74206 -0.97480 -0.42025
-1.74457 -0.97440 -0.42045
-1.74188 -0.97109 -0.41984
-1.74350 -0.97019 -0.42005
-1.74512 -0.96929 -0.42026
-1.74588 -0.96792 -0.42027
-1.74661 -0.96652 -0.42048
-1.74908 -0.96608 -0.42090
-1.75156 -0.96565 -0.42132
-1.75317 -0.96474 -0.42153
-1.75393 -0.96335 -0.42153
-1.75380 -0.96148 -0.42154
-1.75459 -0.96012 -0.42133
-1.75535 -0.95873 -0.42134
-1.75610 -0.95735 -0.42134
-1.75772 -0.95643 -0.42155
-1.75847 -0.95504 -0.42155
-1.75840 -0.95321 -0.42114
-1.75915 -0.95182 -0.42114
-1.76076 -0.95090 -0.42135
-1.76151 -0.94951 -0.42135
-1.76312 -0.94858 -0.42156
-1.76300 -0.94673 -0.42136
-1.76378 -0.94537 -0.42115
-1.76366 -0.94352 -0.42095
-1.76440 -0.94213 -0.42095
-1.76601 -0.94121 -0.42116
-1.76674 -0.93982 -0.42117
-1.76662 -0.93797 -0.42096
-1.76818 -0.93702 -0.42139
-1.76891 -0.93563 -0.42139
-1.76965 -0.93424 -0.42139
-1.77038 -0.93285 -0.42140
-1.77198 -0.93192 -0.42161
-1.77184 -0.93007 -0.42141
-1.77253 -0.92866 -0.42162
-1.77326 -0.92726 -0.42163
-1.77312 -0.92541 -0.42142
-1.77475 -0.92449 -0.42142
-1.77721 -0.92400 -0.42184
-1.77876 -0.92304 -0.42226
-1.77866 -0.92121 -0.42184
-1.77938 -0.91981 -0.42185
-1.78097 -0.91886 -0.42206
-1.78256 -0.91791 -0.42227
-1.78154 -0.91561 -0.42186
-1.78052 -0.91332 -0.42145
-1.78298 -0.91281 -0.42187
-1.78456 -0.91186 -0.42208
-1.78528 -0.91046 -0.42208
-1.78599 -0.90905 -0.42208
-1.78758 -0.90809 -0.42229
-1.78829 -0.90669 -0.42230
-1.78904 -0.90530 -0.42209
-1.79146 -0.90476 -0.42272
-1.79217 -0.90335 -0.42272
-1.79109 -0.90104 -0.42253
-1.79179 -0.89963 -0.42253
-1.79425 -0.89910 -0.42295
-1.79495 -0.89769 -0.42295
-1.79653 -0.89672 -0.42316
-1.79724 -0.89531 -0.42316
-1.79790 -0.89388 -0.42338
-1.79772 -0.89203 -0.42318
-1.79754 -0.89018 -0.42298
-1.80000 -0.88964 -0.42339
-1.80161 -0.88867 -0.42339
-1.80231 -0.88726 -0.42339
-1.80213 -0.88541 -0.42319
-1.80194 -0.88356 -0.42299
-1.80264 -0.88215 -0.42299
-1.80421 -0.88116 -0.42320
-1.80666 -0.88060 -0.42362
-1.80651 -0.87877 -0.42320
-1.80544 -0.87650 -0.42279
-1.80612 -0.87508 -0.42280
-1.80769 -0.87409 -0.42301
-1.80842 -0.87269 -0.42279
-1.80910 -0.87126 -0.42280
-1.80978 -0.86984 -0.42280
-1.81307 -0.86967 -0.42364
-1.81287 -0.86782 -0.42344
-1.81355 -0.86640 -0.42344
-1.81511 -0.86539 -0.42365
-1.81579 -0.86397 -0.42365
-1.81554 -0.86210 -0.42367
-1.81622 -0.86067 -0.42367
-1.81778 -0.85967 -0.42388
-1.81845 -0.85824 -0.42388
-1.81909 -0.85679 -0.42410
-1.81980 -0.85538 -0.42389
-1.82043 -0.85393 -0.42411
-1.82198 -0.85291 -0.42432
-1.82265 -0.85148 -0.42432
-1.82336 -0.85007 -0.42411
-1.82403 -0.84864 -0.42412
-1.82558 -0.84762 -0.42433
-1.82713 -0.84659 -0.42454
-1.82780 -0.84516 -0.42454
-1.82668 -0.84290 -0.42413
-1.82738 -0.84148 -0.42392
-1.82978 -0.84085 -0.42455
-1.83044 -0.83941 -0.42456
-1.82940 -0.83719 -0.42372
-1.83184 -0.83657 -0.42413
-1.83334 -0.83552 -0.42456
-1.83400 -0.83408 -0.42456
-1.83465 -0.83263 -0.42457
-1.83526 -0.83117 -0.42478
-1.83502 -0.82933 -0.42458
-1.83657 -0.82829 -0.42479
-1.83811 -0.82725 -0.42500
-1.83961 -0.82618 -0.42543
-1.83941 -0.82435 -0.42501
-1.84001 -0.82289 -0.42523
-1.84066 -0.82144 -0.42523
-1.84130 -0.81999 -0.42524
-1.84194 -0.81854 -0.42524
-1.84259 -0.81709 -0.42524
-1.84408 -0.81602 -0.42567
-1.84562 -0.81496 -0.42588
-1.84630 -0.81353 -0.42567
-1.84783 -0.81247 -0.42588
-1.84937 -0.81141 -0.42609
-1.85000 -0.80995 -0.42609
-1.84799 -0.80734 -0.42526
-1.84862 -0.80589 -0.42527
-1.85105 -0.80522 -0.42568
-1.85258 -0.80415 -0.42589
-1.85325 -0.80271 -0.42568
-1.85384 -0.80123 -0.42590
-1.85447 -0.79977 -0.42590
-1.85514 -0.79833 -0.42569
-1.85577 -0.79687 -0.42569
-1.85639 -0.79541 -0.42570
-1.85702 -0.79395 -0.42570
-1.85850 -0.79286 -0.42613
-1.86002 -0.79178 -0.42634
-1.86154 -0.79070 -0.42655
-1.86306 -0.78961 -0.42676
-1.86368 -0.78815 -0.42676
-1.86426 -0.78666 -0.42698
-1.86488 -0.78520 -0.42699
-1.86549 -0.78373 -0.42699
-1.86619 -0.78230 -0.42656
-1.86582 -0.78042 -0.42679
-1.86824 -0.77970 -0.42721
-1.87066 -0.77899 -0.42762
-1.86856 -0.77639 -0.42701
-1.87007 -0.77529 -0.42722
-1.87430 -0.77532 -0.42805
-1.83244 -0.75631 -0.41814
-2.10466 -0.60411 -0.46270
-2.11454 -0.60515 -0.46478
-2.11690 -0.60401 -0.46519
-2.11267 -0.60100 -0.46416
-2.11314 -0.59934 -0.46417
-2.11639 -0.59845 -0.46503
-2.11969 -0.59758 -0.46565
-2.11827 -0.59538 -0.46524
-2.11686 -0.59318 -0.46483
-2.11826 -0.59177 -0.46504
-2.11585 -0.58930 -0.46466
-2.11441 -0.58351 -0.46405
-2.11676 -0.58236 -0.46447
-2.12260 -0.55703 -0.46403
-1.68458 -1.41877 -0.46508
-1.68419 -1.41618 -0.46467
-1.69666 -1.39512 -0.46367
-1.69776 -1.39379 -0.46367
-1.70962 -1.39009 -0.46514
-1.70995 -1.38813 -0.46494
-1.71332 -1.38864 -0.46556
-1.71589 -1.38849 -0.46621
-1.71545 -1.38591 -0.46581
-1.71502 -1.38334 -0.46540
-1.71606 -1.38196 -0.46564
-1.71719 -1.38064 -0.46541
-1.71751 -1.37868 -0.46520
-1.71706 -1.37611 -0.46479
-1.71814 -1.37476 -0.46480
-1.71998 -1.37402 -0.46501
-1.74613 -1.33093 -0.46389
-1.75676 -1.30875 -0.46268
-1.72120 -1.00820 -0.42251
-1.72031 -1.00585 -0.42210
-1.72198 -1.00501 -0.42210
-1.72362 -1.00415 -0.42231
-1.72526 -1.00328 -0.42252
-1.72605 -1.00192 -0.42252
-1.72599 -1.00006 -0.42232
-1.72678 -0.99870 -0.42232
-1.72841 -0.99783 -0.42253
-1.73008 -0.99697 -0.42253
-1.73002 -0.99512 -0.42233
-1.73081 -0.99376 -0.42233
-1.73244 -0.99288 -0.42254
-1.73322 -0.99151 -0.42255
-1.73315 -0.98966 -0.42234
-1.73308 -0.98780 -0.42214
-1.73386 -0.98644 -0.42214
-1.73378 -0.98459 -0.42194
-1.73541 -0.98370 -0.42215
-1.73615 -0.98231 -0.42237
-1.73692 -0.98094 -0.42237
-1.73769 -0.97957 -0.42237
-1.73846 -0.97820 -0.42238
-1.73923 -0.97682 -0.42238
-1.74000 -0.97545 -0.42239
-1.74077 -0.97408 -0.42239
-1.74235 -0.97316 -0.42281
-1.74312 -0.97178 -0.42282
-1.74474 -0.97088 -0.42303
-1.74636 -0.96998 -0.42324
-1.74798 -0.96908 -0.42345
-1.74789 -0.96722 -0.42325
-1.74693 -0.96490 -0.42284
-1.74945 -0.96449 -0.42304
-1.75106 -0.96358 -0.42325
-1.75182 -0.96220 -0.42325
-1.75172 -0.96034 -0.42305
-1.75248 -0.95896 -0.42306
-1.75413 -0.95807 -0.42305
-1.75399 -0.95619 -0.42306
-1.75478 -0.95483 -0.42285
-1.75639 -0.95391 -0.42306
-1.75718 -0.95255 -0.42285
-1.75789 -0.95114 -0.42307
-1.75864 -0.94975 -0.42307
-1.76025 -0.94883 -0.42329
-1.76100 -0.94744 -0.42329
-1.76088 -0.94559 -0.42309
-1.76158 -0.94419 -0.42330
-1.76236 -0.94282 -0.42309
-1.76220 -0.94096 -0.42310
-1.76294 -0.93957 -0.42311
-1.76454 -0.93865 -0.42332
-1.76441 -0.93680 -0.42312
-1.76510 -0.93539 -0.42333
-1.76674 -0.93449 -0.42333
-1.76834 -0.93355 -0.42354
-1.76990 -0.93260 -0.42397
-1.76976 -0.93075 -0.42376
-1.77053 -0.92938 -0.42355
-1.77040 -0.92754 -0.42335
-1.77199 -0.92660 -0.42356
-1.77272 -0.92521 -0.42356
-1.77344 -0.92381 -0.42357
-1.77503 -0.92287 -0.42378
-1.77576 -0.92148 -0.42378
-1.77739 -0.92055 -0.42378
-1.77894 -0.91958 -0.42420
-1.77883 -0.91776 -0.42379
-1.77868 -0.91591 -0.42358
-1.77940 -0.91451 -0.42359
-1.78269 -0.91443 -0.42443
-1.78345 -0.91305 -0.42422
-1.78412 -0.91163 -0.42443
-1.78309 -0.90934 -0.42402
-1.78468 -0.90838 -0.42423
-1.78626 -0.90742 -0.42445
-1.78693 -0.90600 -0.42466
-1.78590 -0.90371 -0.42425
-1.78661 -0.90231 -0.42426
-1.78819 -0.90134 -0.42447
-1.78889 -0.89994 -0.42447
-1.79047 -0.89897 -0.42468
-1.79293 -0.89844 -0.42510
-1.79451 -0.89747 -0.42531
-1.79346 -0.89519 -0.42490
-1.79416 -0.89378 -0.42490
-1.79486 -0.89237 -0.42491
-1.79556 -0.89096 -0.42491
-1.79714 -0.88998 -0.42512
-1.79700 -0.88816 -0.42470
-1.79774 -0.88676 -0.42449
-1.79931 -0.88578 -0.42470
-1.80176 -0.88523 -0.42512
-1.80245 -0.88382 -0.42513
-1.80227 -0.88197 -0.42492
-1.80208 -0.88012 -0.42472
-1.80365 -0.87913 -0.42493
-1.80434 -0.87772 -0.42493
-1.80591 -0.87673 -0.42514
-1.80572 -0.87488 -0.42494
-1.80640 -0.87346 -0.42495
-1.80793 -0.87245 -0.42537
-1.80949 -0.87145 -0.42558
-1.80925 -0.86959 -0.42559
-1.80905 -0.86774 -0.42539
-1.81061 -0.86674 -0.42560
-1.81306 -0.86616 -0.42602
-1.81462 -0.86516 -0.42623
-1.81530 -0.86373 -0.42623
-1.81509 -0.86189 -0.42603
-1.81577 -0.86046 -0.42603
-1.81644 -0.85903 -0.42604
-1.81712 -0.85761 -0.42604
-1.81695 -0.85578 -0.42562
-1.81846 -0.85475 -0.42605
-1.82002 -0.85374 -0.42626
-1.82161 -0.85274 -0.42626
-1.82140 -0.85090 -0.42605
-1.82118 -0.84905 -0.42585
-1.82273 -0.84803 -0.42606
-1.82428 -0.84701 -0.42627
-1.82583 -0.84599 -0.42648
-1.82561 -0.84414 -0.42628
-1.82538 -0.84230 -0.42608
-1.82693 -0.84127 -0.42629
-1.82844 -0.84023 -0.42671
-1.82825 -0.83840 -0.42629
-1.82890 -0.83697 -0.42630
-1.83045 -0.83594 -0.42651
-1.83017 -0.83407 -0.42652
-1.83172 -0.83304 -0.42673
-1.83326 -0.83200 -0.42694
-1.83481 -0.83097 -0.42716
-1.83274 -0.82830 -0.42675
-1.83339 -0.82686 -0.42675
-1.83582 -0.82622 -0.42717
-1.83737 -0.82517 -0.42739
-1.83712 -0.82333 -0.42718
-1.83866 -0.82228 -0.42739
-1.84109 -0.82163 -0.42781
-1.84174 -0.82018 -0.42782
-1.84063 -0.81796 -0.42719
-1.84128 -0.81651 -0.42719
-1.84281 -0.81546 -0.42740
-1.84345 -0.81401 -0.42741
-1.84413 -0.81258 -0.42719
-1.84477 -0.81112 -0.42720
-1.84630 -0.81007 -0.42741
-1.84694 -0.80861 -0.42741
-1.84762 -0.80718 -0.42720
-1.84735 -0.80533 -0.42700
-1.84794 -0.80386 -0.42722
-1.85127 -0.80358 -0.42784
-1.85190 -0.80212 -0.42785
-1.85253 -0.80066 -0.42785
-1.85401 -0.79958 -0.42828
-1.85464 -0.79812 -0.42828
-1.85437 -0.79627 -0.42808
-1.85499 -0.79481 -0.42808
-1.85651 -0.79374 -0.42829
-1.85709 -0.79226 -0.42851
-1.85682 -0.79041 -0.42831
-1.85834 -0.78934 -0.42852
-1.85986 -0.78826 -0.42873
-1.86228 -0.78755 -0.42915
-1.86294 -0.78611 -0.42894
-1.86265 -0.78426 -0.42873
-1.86237 -0.78242 -0.42853
-1.86388 -0.78133 -0.42874
-1.86540 -0.78024 -0.42895
-1.86691 -0.77915 -0.42917
-1.86753 -0.77768 -0.42917
-1.86814 -0.77621 -0.42917
-1.86788 -0.77438 -0.42875
-1.86935 -0.77327 -0.42918
-1.86815 -0.77105 -0.42877
-2.08139 -0.64933 -0.46329
-2.09306 -0.62769 -0.46462
-2.09168 -0.62547 -0.46421
-2.10832 -0.60337 -0.46635
-2.10880 -0.60170 -0.46636
-2.10739 -0.59950 -0.46594
-2.10875 -0.59809 -0.46639
-2.11210 -0.59724 -0.46678
-2.11068 -0.59504 -0.46637
-2.10451 -0.59151 -0.46515
-2.10498 -0.58985 -0.46516
-2.11119 -0.58980 -0.46594
-2.11354 -0.58866 -0.46636
-2.11013 -0.58591 -0.46600
-1.70356 -1.38295 -0.46516
-1.70465 -1.38161 -0.46517
-1.70725 -1.38150 -0.46559
-1.71062 -1.38201 -0.46621
-1.71250 -1.38131 -0.46619
-1.71054 -1.37751 -0.46536
-1.70933 -1.37432 -0.46475
-1.70964 -1.37237 -0.46454
-1.71225 -1.37225 -0.46496
-1.71485 -1.37213 -0.46538
-1.79009 -1.24155 -0.46224
-1.80125 -1.22005 -0.46167
-1.80140 -1.21808 -0.46147
-1.71842 -1.00475 -0.42275
-1.72090 -1.00438 -0.42317
-1.72339 -1.00401 -0.42359
-1.72502 -1.00314 -0.42380
-1.72497 -1.00129 -0.42359
-1.72406 -0.99895 -0.42318
-1.72570 -0.99808 -0.42339
-1.72733 -0.99720 -0.42361
-1.72808 -0.99582 -0.42382
-1.72890 -0.99448 -0.42361
-1.72964 -0.99309 -0.42383
-1.73042 -0.99172 -0.42383
-1.73121 -0.99036 -0.42384
-1.73199 -0.98899 -0.42384
-1.73358 -0.98809 -0.42427
-1.73350 -0.98623 -0.42406
-1.73428 -0.98487 -0.42407
-1.73420 -0.98302 -0.42386
-1.73498 -0.98165 -0.42386
-1.73660 -0.98076 -0.42408
-1.73823 -0.97987 -0.42429
-1.73819 -0.97804 -0.42387
-1.73810 -0.97619 -0.42367
-1.73973 -0.97530 -0.42388
-1.74139 -0.97442 -0.42388
-1.74297 -0.97350 -0.42430
-1.74292 -0.97167 -0.42388
-1.74369 -0.97030 -0.42389
-1.74531 -0.96940 -0.42410
-1.74521 -0.96754 -0.42390
-1.74598 -0.96617 -0.42390
-1.74759 -0.96526 -0.42411
-1.74925 -0.96438 -0.42411
-1.75001 -0.96300 -0.42411
-1.74905 -0.96067 -0.42370
-1.74981 -0.95929 -0.42370
-1.75228 -0.95885 -0.42412
-1.75385 -0.95792 -0.42455
-1.75461 -0.95653 -0.42455
-1.75532 -0.95513 -0.42477
-1.75607 -0.95374 -0.42477
-1.75683 -0.95235 -0.42478
-1.75758 -0.95097 -0.42478
-1.75742 -0.94909 -0.42479
-1.75817 -0.94771 -0.42479
-1.75892 -0.94632 -0.42480
-1.76060 -0.94544 -0.42458
-1.76134 -0.94406 -0.42459
-1.76118 -0.94219 -0.42460
-1.76192 -0.94081 -0.42460
-1.76352 -0.93988 -0.42481
-1.76516 -0.93898 -0.42481
-1.76503 -0.93713 -0.42461
-1.76490 -0.93529 -0.42440
-1.76564 -0.93390 -0.42440
-1.76637 -0.93251 -0.42441
-1.76710 -0.93112 -0.42441
-1.76956 -0.93065 -0.42483
-1.77116 -0.92971 -0.42504
-1.77102 -0.92787 -0.42484
-1.77175 -0.92647 -0.42484
-1.77326 -0.92549 -0.42548
-1.77403 -0.92412 -0.42527
-1.77388 -0.92227 -0.42507
-1.77457 -0.92086 -0.42529
-1.77616 -0.91991 -0.42550
-1.77688 -0.91852 -0.42550
-1.77764 -0.91714 -0.42529
-1.77745 -0.91528 -0.42530
-1.77904 -0.91433 -0.42551
-1.77975 -0.91293 -0.42552
-1.78134 -0.91198 -0.42573
-1.78293 -0.91102 -0.42594
-1.78103 -0.90829 -0.42532
-1.78174 -0.90689 -0.42532
-1.78419 -0.90637 -0.42574
-1.78578 -0.90541 -0.42595
-1.78561 -0.90357 -0.42575
-1.78636 -0.90219 -0.42554
-1.78794 -0.90122 -0.42575
-1.78952 -0.90026 -0.42596
-1.79027 -0.89887 -0.42575
-1.79098 -0.89746 -0.42576
-1.79164 -0.89604 -0.42597
-1.79326 -0.89509 -0.42597
-1.79571 -0.89455 -0.42639
-1.79466 -0.89227 -0.42598
-1.79448 -0.89042 -0.42578
-1.79518 -0.88901 -0.42578
-1.79676 -0.88803 -0.42599
-1.79657 -0.88619 -0.42579
-1.79723 -0.88476 -0.42601
-1.79880 -0.88378 -0.42622
-1.80125 -0.88322 -0.42664
-1.80018 -0.88095 -0.42622
-1.80083 -0.87951 -0.42644
-1.80328 -0.87896 -0.42686
-1.80221 -0.87668 -0.42645
-1.80378 -0.87569 -0.42666
-1.80623 -0.87513 -0.42708
-1.80691 -0.87371 -0.42708
-1.80764 -0.87231 -0.42687
-1.80916 -0.87129 -0.42730
-1.80989 -0.86989 -0.42709
-1.80969 -0.86805 -0.42689
-1.80949 -0.86620 -0.42668
-1.81105 -0.86520 -0.42689
-1.81173 -0.86378 -0.42690
-1.81240 -0.86235 -0.42690
-1.81308 -0.86093 -0.42690
-1.81464 -0.85993 -0.42712
-1.81531 -0.85850 -0.42712
-1.81598 -0.85707 -0.42712
-1.81577 -0.85523 -0.42692
-1.81644 -0.85380 -0.42692
-1.81711 -0.85237 -0.42693
-1.81862 -0.85134 -0.42735
-1.82022 -0.85035 -0.42735
-1.82177 -0.84933 -0.42756
-1.82240 -0.84788 -0.42778
-1.82217 -0.84603 -0.42758
-1.82284 -0.84460 -0.42758
-1.82528 -0.84399 -0.42800
-1.82590 -0.84254 -0.42822
-1.82567 -0.84069 -0.42801
-1.82722 -0.83967 -0.42823
-1.82787 -0.83823 -0.42823
-1.82857 -0.83681 -0.42802
-1.82919 -0.83536 -0.42824
-1.82988 -0.83394 -0.42803
-1.83143 -0.83291 -0.42824
-1.83119 -0.83106 -0.42803
-1.83184 -0.82962 -0.42804
-1.83253 -0.82820 -0.42783
-1.83318 -0.82676 -0.42783
-1.83383 -0.82532 -0.42783
-1.83537 -0.82428 -0.42805
-1.83691 -0.82323 -0.42826
-1.83756 -0.82179 -0.42826
-1.83910 -0.82074 -0.42847
-1.83974 -0.81929 -0.42848
-1.84043 -0.81787 -0.42827
-1.84017 -0.81602 -0.42806
-1.84081 -0.81457 -0.42806
-1.84231 -0.81350 -0.42849
-1.84384 -0.81245 -0.42870
-1.84444 -0.81098 -0.42892
-1.84418 -0.80913 -0.42872
-1.84660 -0.80847 -0.42914
-1.84724 -0.80701 -0.42914
-1.84604 -0.80476 -0.42895
-1.84675 -0.80334 -0.42852
-1.84909 -0.80263 -0.42937
-1.85156 -0.80197 -0.42957
-1.85309 -0.80091 -0.42979
-1.85372 -0.79945 -0.42979
-1.85438 -0.79801 -0.42958
-1.85407 -0.79614 -0.42959
-1.85469 -0.79469 -0.42959
-1.85626 -0.79363 -0.42959
-1.85688 -0.79217 -0.42959
-1.85746 -0.79069 -0.42981
-1.85813 -0.78925 -0.42960
-1.85874 -0.78778 -0.42960
-1.85936 -0.78632 -0.42961
-1.86088 -0.78524 -0.42982
-1.86060 -0.78339 -0.42962
-1.86121 -0.78193 -0.42962
-1.86268 -0.78083 -0.43005
-1.86424 -0.77976 -0.43004
-1.86571 -0.77865 -0.43047
-1.86633 -0.77718 -0.43047
-1.86513 -0.77496 -0.43006
-1.86574 -0.77350 -0.43007
-1.86725 -0.77240 -0.43028
-1.86781 -0.77091 -0.43050
-2.06421 -0.69798 -0.46459
-2.06564 -0.69665 -0.46504
-2.09576 -0.59977 -0.46528
-2.09624 -0.59812 -0.46528
-2.09765 -0.59673 -0.46550
-2.10005 -0.59562 -0.46568
-2.09957 -0.59370 -0.46548
-2.10004 -0.59204 -0.46548
-2.10051 -0.59039 -0.46549
-2.10191 -0.58899 -0.46570
-2.10143 -0.58707 -0.46550
-2.10190 -0.58541 -0.46550
-2.10236 -0.58375 -0.46550
-2.09988 -0.57415 -0.46470
-2.10127 -0.57275 -0.46491
-2.10078 -0.57084 -0.46470
-1.66431 -1.40842 -0.46355
-1.66545 -1.40714 -0.46332
-1.69498 -1.37598 -0.46428
-1.69837 -1.37653 -0.46468
-1.69945 -1.37519 -0.46468
-1.69977 -1.37324 -0.46448
-1.70009 -1.37129 -0.46427
-1.70112 -1.36993 -0.46451
-1.70220 -1.36859 -0.46451
-1.70403 -1.36787 -0.46473
-1.70507 -1.36650 -0.46496
-1.70385 -1.36332 -0.46434
-1.70262 -1.36015 -0.46372
-1.72691 -1.32272 -0.46300
-1.73668 -1.30016 -0.46157
-1.79792 -1.21572 -0.46203
-1.82762 -1.17580 -0.46324
-1.72069 -1.00790 -0.42528
-1.71811 -1.00457 -0.42445
-1.71890 -1.00321 -0.42446
-1.72054 -1.00235 -0.42467
-1.72298 -1.00195 -0.42530
-1.72377 -1.00059 -0.42530
-1.72286 -0.99825 -0.42489
-1.72365 -0.99689 -0.42490
-1.72528 -0.99602 -0.42511
-1.72695 -0.99517 -0.42511
-1.72774 -0.99381 -0.42511
-1.72852 -0.99244 -0.42512
-1.72930 -0.99108 -0.42512
-1.73093 -0.99020 -0.42533
-1.73171 -0.98883 -0.42533
-1.73168 -0.98701 -0.42492
-1.73076 -0.98467 -0.42450
-1.73323 -0.98427 -0.42492
-1.73486 -0.98339 -0.42514
-1.73563 -0.98202 -0.42514
-1.73559 -0.98019 -0.42472
-1.73633 -0.97880 -0.42494
-1.73799 -0.97793 -0.42494
-1.73957 -0.97701 -0.42536
-1.73949 -0.97516 -0.42516
-1.74026 -0.97379 -0.42516
-1.74188 -0.97289 -0.42537
-1.74264 -0.97152 -0.42538
-1.74251 -0.96964 -0.42539
-1.74328 -0.96827 -0.42539
-1.74490 -0.96737 -0.42560
-1.74566 -0.96599 -0.42561
-1.74642 -0.96461 -0.42561
-1.74714 -0.96321 -0.42583
-1.74879 -0.96233 -0.42583
-1.74955 -0.96095 -0.42583
-1.75117 -0.96004 -0.42604
-1.75192 -0.95866 -0.42605
-1.75272 -0.95729 -0.42584
-1.75343 -0.95589 -0.42605
-1.75418 -0.95451 -0.42606
-1.75583 -0.95361 -0.42606
-1.75659 -0.95222 -0.42606
-1.75647 -0.95037 -0.42585
-1.75722 -0.94899 -0.42586
-1.75797 -0.94760 -0.42586
-1.75958 -0.94668 -0.42607
-1.75946 -0.94483 -0.42587
-1.76020 -0.94345 -0.42587
-1.76094 -0.94206 -0.42588
-1.75991 -0.93974 -0.42568
-1.76238 -0.93927 -0.42610
-1.76402 -0.93837 -0.42610
-1.76471 -0.93696 -0.42631
-1.76545 -0.93558 -0.42632
-1.76618 -0.93419 -0.42632
-1.76691 -0.93280 -0.42633
-1.76760 -0.93139 -0.42654
-1.76833 -0.93000 -0.42655
-1.76820 -0.92816 -0.42634
-1.76893 -0.92677 -0.42635
-1.77052 -0.92583 -0.42656
-1.77211 -0.92489 -0.42677
-1.77284 -0.92350 -0.42677
-1.77443 -0.92256 -0.42699
-1.77515 -0.92116 -0.42699
-1.77501 -0.91932 -0.42679
-1.77490 -0.91749 -0.42637
-1.77562 -0.91610 -0.42637
-1.77808 -0.91560 -0.42679
-1.77970 -0.91467 -0.42679
-1.78129 -0.91372 -0.42700
-1.78027 -0.91143 -0.42659
-1.78102 -0.91005 -0.42638
-1.78082 -0.90818 -0.42639
-1.78245 -0.90725 -0.42639
-1.78312 -0.90583 -0.42660
-1.78387 -0.90445 -0.42639
-1.78458 -0.90304 -0.42640
-1.78612 -0.90206 -0.42682
-1.78770 -0.90110 -0.42704
-1.78924 -0.90011 -0.42746
-1.78994 -0.89871 -0.42747
-1.78978 -0.89686 -0.42726
-1.79048 -0.89546 -0.42727
-1.79206 -0.89448 -0.42748
-1.79272 -0.89306 -0.42770
-1.79342 -0.89165 -0.42770
-1.79412 -0.89024 -0.42770
-1.79394 -0.88840 -0.42750
-1.79551 -0.88742 -0.42771
-1.79621 -0.88601 -0.42772
-1.79694 -0.88462 -0.42750
-1.79851 -0.88363 -0.42772
-1.79833 -0.88179 -0.42751
-1.79902 -0.88038 -0.42751
-1.79971 -0.87896 -0.42752
-1.80128 -0.87798 -0.42773
-1.80201 -0.87658 -0.42752
-1.80269 -0.87517 -0.42752
-1.80334 -0.87373 -0.42774
-1.80407 -0.87233 -0.42753
-1.80475 -0.87092 -0.42754
-1.80715 -0.87033 -0.42817
-1.80784 -0.86891 -0.42817
-1.80852 -0.86748 -0.42818
-1.80920 -0.86606 -0.42818
-1.80983 -0.86462 -0.42840
-1.81051 -0.86320 -0.42840
-1.81207 -0.86220 -0.42862
-1.81275 -0.86077 -0.42862
-1.81342 -0.85935 -0.42862
-1.81410 -0.85793 -0.42863
-1.81473 -0.85648 -0.42885
-1.81451 -0.85464 -0.42864
-1.81611 -0.85365 -0.42864
-1.81678 -0.85222 -0.42864
-1.81745 -0.85079 -0.42865
-1.81812 -0.84936 -0.42865
-1.81967 -0.84835 -0.42886
-1.82033 -0.84692 -0.42887
-1.82015 -0.84510 -0.42845
-1.82170 -0.84408 -0.42866
-1.82414 -0.84347 -0.42908
-1.82480 -0.84203 -0.42909
-1.82550 -0.84062 -0.42887
-1.82705 -0.83959 -0.42909
-1.82771 -0.83815 -0.42909
-1.82747 -0.83631 -0.42889
-1.82724 -0.83447 -0.42868
-1.82785 -0.83301 -0.42890
-1.82944 -0.83200 -0.42890
-1.83009 -0.83056 -0.42890
-1.83074 -0.82913 -0.42890
-1.83224 -0.82807 -0.42933
-1.83289 -0.82663 -0.42934
-1.83354 -0.82519 -0.42934
-1.83419 -0.82375 -0.42934
-1.83568 -0.82268 -0.42977
-1.83722 -0.82164 -0.42998
-1.83783 -0.82017 -0.43020
-1.83851 -0.81875 -0.42999
-1.83737 -0.81651 -0.42958
-1.83980 -0.81585 -0.43000
-1.84133 -0.81480 -0.43021
-1.84197 -0.81335 -0.43022
-1.84171 -0.81151 -0.43001
-1.84325 -0.81045 -0.43022
-1.84299 -0.80861 -0.43002
-1.84362 -0.80716 -0.43002
-1.84519 -0.80612 -0.43002
-1.84583 -0.80467 -0.43002
-1.84646 -0.80322 -0.43003
-1.84709 -0.80176 -0.43003
-1.84861 -0.80070 -0.43024
-1.84924 -0.79924 -0.43025
-1.84987 -0.79779 -0.43025
-1.85050 -0.79633 -0.43025
-1.85108 -0.79486 -0.43047
-1.85170 -0.79340 -0.43048
-1.85322 -0.79233 -0.43069
-1.85564 -0.79164 -0.43111
-1.85717 -0.79056 -0.43132
-1.85594 -0.78832 -0.43113
-1.85566 -0.78648 -0.43092
-1.85718 -0.78540 -0.43113
-1.85870 -0.78432 -0.43135
-1.86021 -0.78323 -0.43156
-1.86173 -0.78215 -0.43177
-1.86234 -0.78068 -0.43178
-1.86205 -0.77884 -0.43157
-1.86353 -0.77774 -0.43200
-1.86512 -0.77668 -0.43178
-1.86302 -0.77409 -0.43116
-1.86359 -0.77260 -0.43138
-1.86424 -0.77116 -0.43116
-1.87208 -0.77267 -0.43284
-2.00536 -0.81112 -0.46211
-2.00418 -0.80881 -0.46170
-2.01498 -0.78931 -0.46284
-2.01924 -0.78915 -0.46368
-2.01535 -0.78580 -0.46241
-2.02753 -0.76494 -0.46330
-2.02721 -0.76300 -0.46310
-2.05929 -0.69632 -0.46495
-2.05609 -0.69343 -0.46435
-2.07651 -0.61915 -0.46413
-2.07329 -0.61641 -0.46307
-2.08744 -0.59561 -0.46503
-2.09078 -0.59478 -0.46543
-2.09214 -0.59338 -0.46588
-2.09260 -0.59173 -0.46588
-2.09307 -0.59008 -0.46588
-2.09353 -0.58843 -0.46589
-2.09301 -0.58650 -0.46592
-2.09351 -0.58486 -0.46569
-2.09393 -0.58319 -0.46592
-2.09066 -0.58051 -0.46486
-2.08829 -0.57808 -0.46423
-2.09339 -0.57060 -0.46487
-1.66031 -1.40503 -0.46414
-1.67606 -1.38481 -0.46353
-1.69323 -1.37456 -0.46526
-1.69351 -1.37258 -0.46529
-1.69386 -1.37067 -0.46486
-1.69573 -1.36998 -0.46484
-1.69833 -1.36988 -0.46526
-1.69780 -1.36726 -0.46531
-1.69587 -1.36350 -0.46425
-1.69770 -1.36278 -0.46446
-1.70110 -1.36331 -0.46486
-1.69987 -1.36014 -0.46423
-1.69632 -1.35511 -0.46322
-1.75163 -1.27942 -0.46303
-1.76659 -1.25857 -0.46332
-1.81754 -1.16931 -0.46189
-1.82180 -1.17002 -0.46250
-1.85779 -1.10600 -0.46251
-1.85862 -1.10450 -0.46274
-1.72129 -1.00643 -0.42635
-1.71871 -1.00310 -0.42552
-1.72034 -1.00224 -0.42573
-1.72113 -1.00088 -0.42574
-1.72196 -0.99954 -0.42553
-1.72274 -0.99818 -0.42553
-1.72353 -0.99682 -0.42553
-1.72432 -0.99546 -0.42554
-1.72510 -0.99410 -0.42554
-1.72584 -0.99272 -0.42576
-1.72747 -0.99184 -0.42597
-1.72741 -0.98999 -0.42577
-1.72734 -0.98815 -0.42556
-1.72896 -0.98727 -0.42577
-1.73140 -0.98685 -0.42641
-1.73222 -0.98550 -0.42620
-1.73210 -0.98363 -0.42621
-1.73373 -0.98275 -0.42642
-1.73535 -0.98186 -0.42663
-1.73698 -0.98097 -0.42685
-1.73690 -0.97912 -0.42664
-1.73597 -0.97679 -0.42623
-1.73674 -0.97542 -0.42623
-1.73836 -0.97453 -0.42644
-1.73912 -0.97316 -0.42645
-1.73989 -0.97178 -0.42645
-1.74155 -0.97091 -0.42645
-1.74232 -0.96953 -0.42645
-1.74308 -0.96816 -0.42646
-1.74470 -0.96726 -0.42667
-1.74460 -0.96541 -0.42646
-1.74536 -0.96403 -0.42647
-1.74612 -0.96265 -0.42647
-1.74684 -0.96125 -0.42669
-1.74760 -0.95987 -0.42669
-1.74835 -0.95849 -0.42670
-1.75001 -0.95761 -0.42670
-1.75072 -0.95620 -0.42691
-1.75147 -0.95482 -0.42692
-1.75137 -0.95297 -0.42671
-1.75294 -0.95203 -0.42714
-1.75540 -0.95158 -0.42756
-1.75619 -0.95022 -0.42735
-1.75518 -0.94788 -0.42715
-1.75593 -0.94650 -0.42715
-1.75840 -0.94604 -0.42757
-1.75914 -0.94466 -0.42758
-1.76074 -0.94374 -0.42779
-1.76062 -0.94189 -0.42759
-1.76049 -0.94005 -0.42738
-1.76041 -0.93822 -0.42696
-1.76201 -0.93730 -0.42717
-1.76357 -0.93635 -0.42760
-1.76516 -0.93542 -0.42781
-1.76507 -0.93360 -0.42740
-1.76585 -0.93224 -0.42718
-1.76658 -0.93085 -0.42719
-1.76731 -0.92946 -0.42719
-1.76804 -0.92807 -0.42720
-1.76963 -0.92714 -0.42741
-1.77036 -0.92575 -0.42741
-1.77108 -0.92435 -0.42742
-1.77181 -0.92296 -0.42742
-1.77344 -0.92204 -0.42742
-1.77408 -0.92061 -0.42785
-1.77393 -0.91876 -0.42764
-1.77470 -0.91739 -0.42744
-1.77537 -0.91597 -0.42765
-1.77696 -0.91503 -0.42787
-1.77851 -0.91406 -0.42829
-1.77923 -0.91266 -0.42830
-1.77820 -0.91037 -0.42788
-1.77891 -0.90897 -0.42789
-1.77967 -0.90759 -0.42768
-1.78038 -0.90619 -0.42768
-1.78109 -0.90480 -0.42768
-1.78354 -0.90428 -0.42811
-1.78425 -0.90288 -0.42811
-1.78496 -0.90148 -0.42811
-1.78567 -0.90007 -0.42812
-1.78816 -0.89957 -0.42833
-1.78795 -0.89771 -0.42833
-1.78778 -0.89586 -0.42813
-1.79023 -0.89533 -0.42855
-1.79098 -0.89395 -0.42834
-1.79076 -0.89208 -0.42835
-1.79150 -0.89070 -0.42814
-1.79303 -0.88970 -0.42856
-1.79373 -0.88829 -0.42857
-1.79447 -0.88690 -0.42836
-1.79425 -0.88504 -0.42837
-1.79578 -0.88404 -0.42879
-1.79651 -0.88265 -0.42858
-1.79804 -0.88165 -0.42901
-1.79785 -0.87981 -0.42880
-1.79854 -0.87840 -0.42881
-1.80011 -0.87741 -0.42902
-1.80168 -0.87642 -0.42923
-1.80144 -0.87456 -0.42924
-1.80217 -0.87316 -0.42903
-1.80286 -0.87175 -0.42904
-1.80354 -0.87033 -0.42904
-1.80330 -0.86847 -0.42905
-1.80490 -0.86750 -0.42905
-1.80646 -0.86650 -0.42926
-1.80891 -0.86593 -0.42968
-1.80694 -0.86324 -0.42906
-1.80854 -0.86226 -0.42906
-1.81098 -0.86168 -0.42948
-1.81166 -0.86026 -0.42949
-1.81056 -0.85799 -0.42907
-1.81128 -0.85659 -0.42886
-1.81372 -0.85600 -0.42928
-1.81439 -0.85458 -0.42929
-1.81502 -0.85313 -0.42950
-1.81573 -0.85173 -0.42929
-1.81636 -0.85028 -0.42951
-1.81702 -0.84885 -0.42951
-1.81769 -0.84742 -0.42952
-1.81924 -0.84641 -0.42973
-1.81990 -0.84498 -0.42974
-1.82052 -0.84353 -0.42995
-1.82118 -0.84210 -0.42996
-1.82273 -0.84108 -0.43017
-1.82250 -0.83924 -0.42996
-1.82316 -0.83780 -0.42997
-1.82560 -0.83719 -0.43039
-1.82803 -0.83657 -0.43082
-1.82869 -0.83513 -0.43082
-1.82845 -0.83329 -0.43061
-1.82910 -0.83185 -0.43062
-1.82976 -0.83041 -0.43062
-1.83041 -0.82898 -0.43062
-1.83110 -0.82756 -0.43041
-1.83175 -0.82612 -0.43042
-1.83240 -0.82467 -0.43042
-1.83304 -0.82323 -0.43042
-1.83458 -0.82219 -0.43064
-1.83523 -0.82075 -0.43064
-1.83587 -0.81930 -0.43065
-1.83647 -0.81784 -0.43086
-1.83890 -0.81719 -0.43129
-1.83959 -0.81576 -0.43107
-1.83929 -0.81390 -0.43108
-1.83993 -0.81245 -0.43109
-1.84146 -0.81140 -0.43130
-1.84210 -0.80995 -0.43130
-1.84273 -0.80850 -0.43131
-1.84516 -0.80783 -0.43173
-1.84485 -0.80597 -0.43174
-1.84459 -0.80413 -0.43154
-1.84522 -0.80268 -0.43154
-1.84675 -0.80162 -0.43175
-1.84648 -0.79978 -0.43155
-1.84711 -0.79832 -0.43155
-1.84953 -0.79764 -0.43197
-1.85105 -0.79658 -0.43219
-1.85078 -0.79473 -0.43198
-1.85141 -0.79328 -0.43199
-1.85293 -0.79220 -0.43220
-1.85359 -0.79076 -0.43199
-1.85331 -0.78892 -0.43178
-1.85397 -0.78748 -0.43157
-1.85549 -0.78641 -0.43178
-1.85611 -0.78495 -0.43179
-1.85582 -0.78311 -0.43158
-1.85824 -0.78240 -0.43200
-1.86066 -0.78170 -0.43243
-1.86127 -0.78024 -0.43243
-1.86188 -0.77877 -0.43243
-1.86250 -0.77731 -0.43244
-1.86401 -0.77622 -0.43265
-1.86371 -0.77438 -0.43245
-1.86247 -0.77214 -0.43225
-1.86308 -0.77068 -0.43225
-1.86364 -0.76919 -0.43247
-1.86790 -0.76923 -0.43310
-2.00499 -0.81097 -0.46397
-2.00114 -0.80758 -0.46269
-2.01446 -0.78728 -0.46379
-2.01594 -0.78603 -0.46424
-2.02537 -0.76413 -0.46451
-2.02694 -0.76289 -0.46449
-2.02622 -0.73359 -0.46248
-2.04835 -0.69082 -0.46429
-2.04704 -0.68858 -0.46387
-2.04820 -0.66031 -0.46180
-2.06091 -0.63937 -0.46334
-2.06142 -0.63775 -0.46335
-2.07911 -0.59146 -0.46477
-2.08334 -0.59088 -0.46561
-2.08855 -0.59058 -0.46644
-2.08812 -0.58868 -0.46600
-2.08388 -0.58571 -0.46495
-2.08434 -0.58407 -0.46496
-2.08861 -0.58349 -0.46557
-2.08907 -0.58184 -0.46557
-2.08854 -0.57992 -0.46560
-2.09088 -0.57879 -0.46602
-2.08452 -0.53826 -0.46247
-2.08969 -0.51330 -0.46272
-2.09100 -0.51187 -0.46316
-1.67841 -1.36254 -0.46361
-1.68100 -1.36245 -0.46404
-1.68283 -1.36174 -0.46425
-1.68538 -1.36162 -0.46491
-1.68569 -1.35968 -0.46470
-1.68523 -1.35713 -0.46428
-1.68630 -1.35581 -0.46429
-1.68888 -1.35571 -0.46471
-1.68842 -1.35316 -0.46430
-1.68800 -1.35064 -0.46365
-1.69058 -1.35053 -0.46407
-1.69241 -1.34981 -0.46429
-1.69910 -1.33994 -0.46364
-1.70092 -1.33921 -0.46386
-1.70435 -1.31395 -0.46165
-1.70771 -1.31440 -0.46228
-1.79567 -1.18959 -0.46220
-1.79661 -1.18818 -0.46220
-1.80953 -1.16820 -0.46272
-1.81288 -1.16834 -0.46359
-1.84989 -1.10129 -0.46247
-1.71579 -1.00321 -0.42744
-1.71578 -1.00139 -0.42702
-1.71741 -1.00053 -0.42723
-1.71989 -1.00016 -0.42766
-1.72068 -0.99880 -0.42766
-1.72146 -0.99744 -0.42766
-1.72229 -0.99611 -0.42745
-1.72219 -0.99423 -0.42746
-1.72386 -0.99339 -0.42746
-1.72549 -0.99251 -0.42768
-1.72627 -0.99115 -0.42768
-1.72705 -0.98979 -0.42768
-1.72783 -0.98843 -0.42769
-1.72861 -0.98706 -0.42769
-1.72939 -0.98570 -0.42769
-1.72931 -0.98385 -0.42749
-1.73090 -0.98294 -0.42791
-1.73252 -0.98206 -0.42813
-1.73244 -0.98021 -0.42792
-1.73322 -0.97885 -0.42792
-1.73569 -0.97844 -0.42835
-1.73561 -0.97659 -0.42814
-1.73549 -0.97472 -0.42815
-1.73711 -0.97383 -0.42836
-1.73958 -0.97341 -0.42879
-1.74035 -0.97204 -0.42879
-1.74026 -0.97019 -0.42858
-1.73931 -0.96786 -0.42817
-1.74093 -0.96696 -0.42838
-1.74340 -0.96654 -0.42881
-1.74416 -0.96516 -0.42881
-1.74492 -0.96379 -0.42881
-1.74487 -0.96196 -0.42839
-1.74391 -0.95964 -0.42798
-1.74467 -0.95826 -0.42798
-1.74628 -0.95736 -0.42819
-1.74793 -0.95647 -0.42819
-1.74864 -0.95507 -0.42841
-1.74943 -0.95371 -0.42820
-1.75019 -0.95233 -0.42821
-1.75184 -0.95144 -0.42821
-1.75254 -0.95003 -0.42842
-1.75329 -0.94865 -0.42843
-1.75404 -0.94727 -0.42843
-1.75479 -0.94588 -0.42844
-1.75725 -0.94542 -0.42886
-1.75799 -0.94404 -0.42886
-1.75697 -0.94171 -0.42866
-1.75771 -0.94033 -0.42866
-1.75845 -0.93895 -0.42867
-1.76005 -0.93803 -0.42888
-1.76251 -0.93757 -0.42930
-1.76320 -0.93616 -0.42952
-1.76311 -0.93434 -0.42910
-1.76467 -0.93339 -0.42953
-1.76458 -0.93157 -0.42911
-1.76358 -0.92927 -0.42869
-1.76431 -0.92788 -0.42870
-1.76672 -0.92738 -0.42934
-1.76836 -0.92647 -0.42934
-1.76908 -0.92508 -0.42934
-1.76981 -0.92369 -0.42934
-1.76880 -0.92139 -0.42893
-1.76952 -0.92000 -0.42893
-1.77111 -0.91907 -0.42914
-1.77274 -0.91814 -0.42914
-1.77429 -0.91718 -0.42957
-1.77501 -0.91578 -0.42957
-1.77573 -0.91439 -0.42958
-1.77644 -0.91299 -0.42958
-1.77716 -0.91160 -0.42959
-1.77787 -0.91020 -0.42959
-1.77859 -0.90880 -0.42959
-1.77926 -0.90739 -0.42981
-1.77910 -0.90554 -0.42961
-1.78068 -0.90459 -0.42982
-1.78313 -0.90407 -0.43024
-1.78384 -0.90267 -0.43025
-1.78364 -0.90081 -0.43025
-1.78438 -0.89943 -0.43004
-1.78592 -0.89844 -0.43047
-1.78663 -0.89704 -0.43048
-1.78733 -0.89564 -0.43048
-1.78803 -0.89423 -0.43048
-1.78877 -0.89285 -0.43027
-1.78947 -0.89144 -0.43028
-1.79017 -0.89004 -0.43028
-1.79087 -0.88863 -0.43028
-1.79161 -0.88724 -0.43007
-1.79318 -0.88627 -0.43029
-1.79300 -0.88443 -0.43008
-1.79373 -0.88304 -0.42987
-1.79530 -0.88206 -0.43009
-1.79687 -0.88108 -0.43030
-1.79581 -0.87881 -0.42988
-1.79650 -0.87740 -0.42989
-1.79806 -0.87641 -0.43010
-1.79959 -0.87541 -0.43053
-1.80027 -0.87399 -0.43053
-1.79920 -0.87172 -0.43012
-1.79988 -0.87031 -0.43012
-1.80321 -0.87017 -0.43075
-1.80473 -0.86916 -0.43118
-1.80541 -0.86774 -0.43119
-1.80609 -0.86632 -0.43119
-1.80585 -0.86446 -0.43120
-1.80657 -0.86306 -0.43099
-1.80720 -0.86162 -0.43121
-1.80788 -0.86020 -0.43121
-1.80855 -0.85878 -0.43121
-1.80922 -0.85736 -0.43122
-1.81259 -0.85721 -0.43164
-1.81415 -0.85620 -0.43185
-1.81305 -0.85395 -0.43143
-1.81195 -0.85169 -0.43102
-1.81266 -0.85028 -0.43081
-1.81421 -0.84928 -0.43102
-1.81753 -0.84909 -0.43166
-1.81820 -0.84766 -0.43166
-1.81886 -0.84623 -0.43166
-1.81948 -0.84479 -0.43188
-1.82019 -0.84337 -0.43167
-1.82085 -0.84194 -0.43167
-1.82147 -0.84049 -0.43189
-1.82213 -0.83906 -0.43190
-1.82190 -0.83722 -0.43169
-1.82166 -0.83538 -0.43148
-1.82410 -0.83477 -0.43191
-1.82831 -0.83496 -0.43275
-1.82896 -0.83352 -0.43276
-1.82690 -0.83085 -0.43234
-1.82577 -0.82861 -0.43193
-1.82731 -0.82757 -0.43214
-1.82881 -0.82652 -0.43257
-1.82857 -0.82468 -0.43236
-1.82837 -0.82286 -0.43194
-1.82812 -0.82102 -0.43173
-1.83055 -0.82038 -0.43216
-1.83387 -0.82014 -0.43280
-1.83541 -0.81910 -0.43301
-1.83516 -0.81725 -0.43280
-1.83584 -0.81583 -0.43259
-1.83559 -0.81399 -0.43239
-1.83712 -0.81294 -0.43260
-1.83870 -0.81191 -0.43260
-1.83933 -0.81046 -0.43260
-1.83907 -0.80862 -0.43240
-1.84060 -0.80757 -0.43261
-1.84303 -0.80690 -0.43304
-1.84366 -0.80545 -0.43304
-1.84429 -0.80400 -0.43304
-1.84399 -0.80214 -0.43305
-1.84551 -0.80108 -0.43327
-1.84529 -0.79926 -0.43284
-1.84502 -0.79742 -0.43264
-1.84740 -0.79672 -0.43328
-1.84798 -0.79525 -0.43350
-1.84770 -0.79341 -0.43329
-1.85012 -0.79273 -0.43371
-1.85254 -0.79204 -0.43414
-1.85231 -0.79022 -0.43372
-1.85194 -0.78834 -0.43394
-1.85261 -0.78690 -0.43373
-1.85507 -0.78622 -0.43394
-1.85658 -0.78515 -0.43415
-1.85716 -0.78367 -0.43437
-1.85867 -0.78258 -0.43459
-1.86023 -0.78152 -0.43458
-1.85994 -0.77968 -0.43438
-1.85875 -0.77746 -0.43396
-1.86387 -0.77788 -0.43502
-1.86629 -0.77716 -0.43544
-1.86238 -0.77382 -0.43439
-1.86511 -0.76980 -0.43461
-1.87384 -0.77168 -0.43651
-1.91066 -0.78509 -0.44472
-1.99547 -0.80712 -0.46417
-1.99339 -0.80445 -0.46354
-2.00737 -0.78269 -0.46420
-2.00616 -0.78040 -0.46378
-2.01398 -0.75983 -0.46406
-2.01270 -0.75754 -0.46387
-2.00872 -0.75423 -0.46282
-2.02614 -0.73537 -0.46476
-2.02488 -0.73311 -0.46434
-2.02814 -0.70905 -0.46380
-2.02782 -0.70714 -0.46337
-2.03651 -0.68504 -0.46317
-2.06645 -0.58786 -0.46410
-2.07162 -0.58756 -0.46516
-2.07396 -0.58646 -0.46559
-2.07630 -0.58535 -0.46602
-2.07582 -0.58345 -0.46581
-2.07158 -0.58049 -0.46476
-2.07392 -0.57938 -0.46518
-2.07625 -0.57827 -0.46561
-2.07676 -0.57665 -0.46538
-2.07627 -0.57475 -0.46518
-2.07092 -0.56097 -0.46328
-2.06947 -0.55883 -0.46286
-1.67386 -1.35666 -0.46399
-1.67640 -1.35654 -0.46465
-1.67443 -1.35277 -0.46381
-1.67549 -1.35145 -0.46381
-1.67651 -1.35010 -0.46405
-1.67681 -1.34818 -0.46384
-1.67859 -1.34744 -0.46429
-1.67968 -1.34615 -0.46406
-1.68150 -1.34544 -0.46427
-1.68256 -1.34412 -0.46428
-1.68055 -1.34036 -0.46344
-1.70086 -1.31126 -0.46310
-1.72474 -1.26813 -0.46174
-1.72653 -1.26735 -0.46196
-1.74063 -1.24630 -0.46158
-1.78968 -1.18359 -0.46282
-1.80337 -1.16422 -0.46355
-1.82705 -1.11917 -0.46282
-1.84104 -1.09799 -0.46287
-1.71455 -1.00249 -0.42935
-1.71450 -1.00064 -0.42914
-1.71613 -0.99978 -0.42936
-1.71776 -0.99892 -0.42957
-1.71940 -0.99806 -0.42979
-1.72022 -0.99672 -0.42958
-1.72016 -0.99487 -0.42937
-1.72094 -0.99352 -0.42938
-1.72173 -0.99216 -0.42938
-1.72336 -0.99129 -0.42959
-1.72414 -0.98993 -0.42960
-1.72580 -0.98908 -0.42960
-1.72658 -0.98771 -0.42960
-1.72740 -0.98637 -0.42939
-1.72648 -0.98404 -0.42898
-1.72725 -0.98268 -0.42898
-1.72884 -0.98178 -0.42941
-1.73046 -0.98089 -0.42962
-1.73212 -0.98003 -0.42962
-1.73290 -0.97867 -0.42963
-1.73282 -0.97682 -0.42942
-1.73355 -0.97543 -0.42964
-1.73517 -0.97454 -0.42985
-1.73504 -0.97267 -0.42986
-1.73581 -0.97130 -0.42986
-1.73653 -0.96991 -0.43008
-1.73729 -0.96854 -0.43008
-1.73891 -0.96764 -0.43030
-1.73971 -0.96629 -0.43009
-1.73873 -0.96395 -0.42988
-1.73867 -0.96212 -0.42946
-1.74199 -0.96217 -0.43010
-1.74446 -0.96174 -0.43052
-1.74351 -0.95942 -0.43011
-1.74341 -0.95757 -0.42990
-1.74502 -0.95667 -0.43011
-1.74577 -0.95529 -0.43012
-1.74652 -0.95391 -0.43012
-1.74642 -0.95207 -0.42991
-1.74721 -0.95071 -0.42970
-1.74881 -0.94980 -0.42992
-1.75214 -0.94981 -0.43056
-1.75371 -0.94888 -0.43098
-1.75359 -0.94703 -0.43078
-1.75434 -0.94564 -0.43078
-1.75595 -0.94472 -0.43100
-1.75669 -0.94334 -0.43100
-1.75657 -0.94150 -0.43079
-1.75730 -0.94012 -0.43079
-1.75800 -0.93871 -0.43101
-1.75874 -0.93733 -0.43102
-1.75947 -0.93595 -0.43102
-1.76107 -0.93503 -0.43123
-1.76176 -0.93362 -0.43145
-1.76167 -0.93180 -0.43103
-1.76240 -0.93042 -0.43103
-1.76399 -0.92949 -0.43125
-1.76382 -0.92763 -0.43125
-1.76372 -0.92581 -0.43083
-1.76531 -0.92487 -0.43105
-1.76604 -0.92349 -0.43105
-1.76589 -0.92165 -0.43084
-1.76662 -0.92026 -0.43085
-1.76821 -0.91932 -0.43106
-1.76988 -0.91842 -0.43085
-1.77056 -0.91701 -0.43107
-1.77301 -0.91652 -0.43150
-1.77373 -0.91512 -0.43150
-1.77445 -0.91373 -0.43150
-1.77521 -0.91236 -0.43129
-1.77592 -0.91096 -0.43130
-1.77663 -0.90957 -0.43130
-1.77735 -0.90817 -0.43130
-1.77806 -0.90677 -0.43131
-1.77790 -0.90493 -0.43110
-1.77857 -0.90351 -0.43132
-1.78015 -0.90256 -0.43153
-1.78081 -0.90114 -0.43175
-1.78152 -0.89974 -0.43175
-1.78310 -0.89878 -0.43197
-1.78468 -0.89782 -0.43218
-1.78451 -0.89598 -0.43198
-1.78521 -0.89458 -0.43198
-1.78766 -0.89405 -0.43241
-1.78749 -0.89221 -0.43220
-1.78556 -0.88949 -0.43157
-1.78888 -0.88940 -0.43221
-1.79046 -0.88842 -0.43242
-1.78940 -0.88615 -0.43200
-1.79010 -0.88474 -0.43201
-1.79254 -0.88420 -0.43243
-1.79236 -0.88236 -0.43223
-1.79134 -0.88011 -0.43159
-1.79295 -0.87915 -0.43160
-1.79535 -0.87858 -0.43223
-1.79604 -0.87717 -0.43224
-1.79673 -0.87576 -0.43224
-1.80005 -0.87563 -0.43288
-1.80162 -0.87464 -0.43310
-1.80142 -0.87280 -0.43289
-1.80031 -0.87052 -0.43268
-1.79923 -0.86825 -0.43226
-1.79987 -0.86682 -0.43248
-1.80319 -0.86667 -0.43312
-1.80387 -0.86526 -0.43312
-1.80278 -0.86299 -0.43270
-1.80522 -0.86242 -0.43313
-1.80678 -0.86142 -0.43335
-1.80658 -0.85958 -0.43314
-1.80729 -0.85818 -0.43293
-1.80881 -0.85716 -0.43336
-1.80859 -0.85532 -0.43315
-1.80927 -0.85390 -0.43315
-1.81086 -0.85292 -0.43316
-1.80711 -0.84941 -0.43210
-1.81131 -0.84965 -0.43295
-1.81552 -0.84989 -0.43380
-1.81530 -0.84805 -0.43359
-1.81512 -0.84623 -0.43317
-1.81756 -0.84563 -0.43360
-1.81645 -0.84337 -0.43318
-1.81533 -0.84113 -0.43276
-1.81688 -0.84011 -0.43297
-1.81931 -0.83950 -0.43340
-1.81820 -0.83725 -0.43298
-1.81885 -0.83582 -0.43299
-1.82128 -0.83521 -0.43341
-1.82372 -0.83459 -0.43384
-1.82437 -0.83316 -0.43384
-1.82236 -0.83051 -0.43321
-1.82208 -0.82865 -0.43322
-1.82273 -0.82722 -0.43322
-1.82426 -0.82619 -0.43344
-1.82669 -0.82556 -0.43386
-1.82819 -0.82451 -0.43429
-1.82790 -0.82265 -0.43430
-1.82685 -0.82045 -0.43345
-1.83013 -0.82019 -0.43430
-1.88997 -0.78006 -0.44270
-1.90052 -0.78267 -0.44503
-1.98544 -0.79943 -0.46371
-1.98607 -0.79787 -0.46371
-1.99204 -0.77490 -0.46291
-2.00272 -0.75198 -0.46408
-2.00335 -0.75042 -0.46385
-2.01470 -0.73122 -0.46429
