-1.32008 -0.73321 -0.46498
-1.32149 -0.73263 -0.46527
-1.32123 -0.73113 -0.46498
-1.31846 -0.72823 -0.46381
-1.32238 -0.72904 -0.46499
-1.32300 -0.72802 -0.46483
-1.32269 -0.72649 -0.46470
-1.32410 -0.72591 -0.46500
-1.32467 -0.72486 -0.46500
-1.32533 -0.72386 -0.46468
-1.32590 -0.72282 -0.46468
-1.32647 -0.72177 -0.46468
-1.32704 -0.72072 -0.46468
-1.32760 -0.71968 -0.46469
-1.32817 -0.71863 -0.46469
-1.32962 -0.71806 -0.46482
-1.32934 -0.71656 -0.46453
-1.32907 -0.71505 -0.46424
-1.32706 -0.71263 -0.46353
-1.32762 -0.71159 -0.46353
-1.33070 -0.71189 -0.46441
-1.33210 -0.71130 -0.46471
-1.33177 -0.70978 -0.46459
-1.33317 -0.70918 -0.46488
-1.33542 -0.70903 -0.46547
-1.33428 -0.70708 -0.46489
-1.33479 -0.70601 -0.46505
-1.33793 -0.70633 -0.46578
-1.34013 -0.70614 -0.46653
-1.33730 -0.70331 -0.46536
-1.33531 -0.70093 -0.46448
-1.33760 -0.70079 -0.46491
-1.33814 -0.69973 -0.46491
-1.33530 -0.69691 -0.46374
-1.33585 -0.69586 -0.46374
-1.33894 -0.69614 -0.46462
-1.34033 -0.69552 -0.46492
-1.33918 -0.69359 -0.46434
-1.33803 -0.69166 -0.46375
-1.34031 -0.69151 -0.46418
-1.33996 -0.69000 -0.46405
-1.33970 -0.68853 -0.46359
-1.34023 -0.68748 -0.46360
-1.34073 -0.68640 -0.46376
-1.34382 -0.68665 -0.46465
-1.34521 -0.68603 -0.46495
-1.34570 -0.68495 -0.46512
-1.34543 -0.68348 -0.46466
-1.34426 -0.68156 -0.46407
-1.34731 -0.68177 -0.46513
-1.34955 -0.68158 -0.46572
-1.34838 -0.67966 -0.46513
-1.34549 -0.67688 -0.46396
-1.34598 -0.67580 -0.46412
-1.34822 -0.67560 -0.46472
-1.34960 -0.67497 -0.46501
-1.34757 -0.67262 -0.46413
-1.34980 -0.67242 -0.46472
-1.35123 -0.67180 -0.46486
-1.34919 -0.66947 -0.46398
-1.34971 -0.66841 -0.46398
-1.35371 -0.66906 -0.46500
-1.35424 -0.66800 -0.46500
-1.35476 -0.66693 -0.46500
-1.35442 -0.66545 -0.46471
-1.35499 -0.66441 -0.46455
-1.35551 -0.66334 -0.46455
-1.35603 -0.66227 -0.46456
-1.35483 -0.66037 -0.46397
-1.35449 -0.65889 -0.46368
-1.35501 -0.65782 -0.46368
-1.35634 -0.65715 -0.46414
-1.35771 -0.65650 -0.46444
-1.35737 -0.65502 -0.46415
-1.35955 -0.65476 -0.46491
-1.36097 -0.65413 -0.46504
-1.36058 -0.65263 -0.46491
-1.36023 -0.65114 -0.46462
-1.36246 -0.65090 -0.46521
-1.36297 -0.64983 -0.46521
-1.36348 -0.64876 -0.46522
-1.36658 -0.64891 -0.46610
-1.36450 -0.64661 -0.46522
-1.36414 -0.64513 -0.46493
-1.36465 -0.64406 -0.46494
-1.36429 -0.64258 -0.46464
-1.36306 -0.64069 -0.46406
-1.36270 -0.63922 -0.46377
-1.36411 -0.63857 -0.46390
-1.36634 -0.63831 -0.46449
-1.36857 -0.63804 -0.46508
-1.36821 -0.63657 -0.46479
-1.36524 -0.63388 -0.46362
-1.36660 -0.63321 -0.46392
-1.36970 -0.63334 -0.46480
-1.37020 -0.63226 -0.46481
-1.36896 -0.63038 -0.46422
-1.37027 -0.62969 -0.46468
-1.37164 -0.62901 -0.46498
-1.37300 -0.62833 -0.46528
-1.37436 -0.62765 -0.46557
-1.37480 -0.62655 -0.46574
-1.37356 -0.62467 -0.46515
-1.37317 -0.62320 -0.46486
-1.37540 -0.62291 -0.46546
-1.37589 -0.62183 -0.46546
-1.37899 -0.62192 -0.46635
-1.37861 -0.62045 -0.46605
-1.37382 -0.61699 -0.46445
-1.37522 -0.61632 -0.46459
-1.37832 -0.61641 -0.46547
-1.37881 -0.61533 -0.46548
-1.37672 -0.61309 -0.46443
-1.37894 -0.61279 -0.46502
-1.38204 -0.61286 -0.46591
-1.38078 -0.61100 -0.46532
-1.37776 -0.60837 -0.46415
-1.38178 -0.60885 -0.46516
-1.38488 -0.60892 -0.46605
-1.38449 -0.60744 -0.46576
-1.38321 -0.60559 -0.46517
-1.38369 -0.60450 -0.46518
-1.38416 -0.60341 -0.46518
-1.38376 -0.60194 -0.46489
-1.38511 -0.60123 -0.46519
-1.38821 -0.60128 -0.46607
-1.38605 -0.59905 -0.46519
-1.38209 -0.59605 -0.46389
-1.38338 -0.59532 -0.46435
-1.38741 -0.59576 -0.46537
-1.38783 -0.59465 -0.46553
-1.39005 -0.59431 -0.46613
-1.39052 -0.59321 -0.46613
-1.38923 -0.59137 -0.46554
-1.38881 -0.58990 -0.46525
-1.39191 -0.58993 -0.46614
-1.39238 -0.58883 -0.46614
-1.39108 -0.58700 -0.46555
-1.39335 -0.58666 -0.46598
-1.39552 -0.58629 -0.46674
-1.39515 -0.58484 -0.46628
-1.39296 -0.58263 -0.46540
-1.39342 -0.58154 -0.46541
-1.39564 -0.58118 -0.46600
-1.39433 -0.57934 -0.46541
-1.39302 -0.57752 -0.46482
-1.39524 -0.57715 -0.46542
-1.39746 -0.57678 -0.46601
-1.39526 -0.57459 -0.46513
-1.39306 -0.57240 -0.46425
-1.39793 -0.57312 -0.46572
-1.40280 -0.57383 -0.46720
-1.40143 -0.57198 -0.46678
-1.39834 -0.56944 -0.46560
-1.39874 -0.56832 -0.46577
-1.40184 -0.56829 -0.46666
-1.40233 -0.56721 -0.46650
-1.40273 -0.56609 -0.46666
-1.40229 -0.56463 -0.46637
-1.40273 -0.56353 -0.46637
-1.40495 -0.56313 -0.46697
-1.40716 -0.56274 -0.46756
-1.40494 -0.56057 -0.46668
-1.40454 -0.55913 -0.46622
-1.40676 -0.55873 -0.46681
-1.40986 -0.55868 -0.46770
-1.40763 -0.55651 -0.46682
-1.40718 -0.55505 -0.46653
-1.40766 -0.55397 -0.46637
-1.40810 -0.55286 -0.46637
-1.40764 -0.55140 -0.46608
-1.40629 -0.54960 -0.46549
-1.40672 -0.54849 -0.46550
-1.40804 -0.54773 -0.46579
-1.41026 -0.54731 -0.46639
-1.41068 -0.54621 -0.46639
-1.41022 -0.54475 -0.46610
-1.41149 -0.54397 -0.46656
-1.41771 -0.52215 -0.46586
-1.41538 -0.52003 -0.46515
-1.41758 -0.51957 -0.46574
-1.42785 -0.49918 -0.46685
-1.42829 -0.49807 -0.46668
-1.44817 -0.42311 -0.46586
-1.44662 -0.42141 -0.46544
-1.45528 -0.39791 -0.46592
-1.18357 -0.94702 -0.46659
-1.19522 -0.92594 -0.46564
-1.19594 -0.92500 -0.46564
-1.19667 -0.92406 -0.46565
-1.20383 -0.91161 -0.46493
-1.20306 -0.90954 -0.46418
-1.20377 -0.90860 -0.46418
-1.20601 -0.90880 -0.46477
-1.20367 -0.90556 -0.46360
-1.20438 -0.90461 -0.46360
-1.20662 -0.90481 -0.46420
-1.20886 -0.90501 -0.46479
-1.20952 -0.90403 -0.46496
-1.20794 -0.90136 -0.46408
-1.20788 -0.89984 -0.46378
-1.21161 -0.90114 -0.46513
-1.21312 -0.90079 -0.46526
-1.21302 -0.89924 -0.46514
-1.21292 -0.89769 -0.46501
-1.21439 -0.89730 -0.46531
-1.21955 -0.87903 -0.46296
-1.24685 -0.85173 -0.46512
-1.24436 -0.84859 -0.46394
-1.24736 -0.84919 -0.46499
-1.24961 -0.84928 -0.46559
-1.24944 -0.84773 -0.46546
-1.24769 -0.84511 -0.46474
-1.24994 -0.84519 -0.46533
-1.25223 -0.84530 -0.46576
-1.25211 -0.84378 -0.46547
-1.25277 -0.84279 -0.46547
-1.25348 -0.84183 -0.46531
-1.25493 -0.84137 -0.46561
-1.25480 -0.83985 -0.46532
-1.25467 -0.83833 -0.46503
-1.25537 -0.83737 -0.46487
-1.25524 -0.83585 -0.46457
-1.25426 -0.83377 -0.46415
-1.25735 -0.83439 -0.46487
-1.25880 -0.83393 -0.46517
-1.25862 -0.83238 -0.46504
-1.25848 -0.83086 -0.46475
-1.25993 -0.83039 -0.46505
-1.25899 -0.82834 -0.46447
-1.25800 -0.82627 -0.46404
-1.25945 -0.82581 -0.46434
-1.26254 -0.82641 -0.46506
-1.26235 -0.82486 -0.46494
-1.26140 -0.82282 -0.46435
-1.26445 -0.82339 -0.46524
-1.26510 -0.82239 -0.46524
-1.26414 -0.82035 -0.46465
-1.26559 -0.81987 -0.46495
-1.26780 -0.81988 -0.46571
-1.26848 -0.81891 -0.46555
-1.26828 -0.81736 -0.46542
-1.26812 -0.81585 -0.46513
-1.26957 -0.81536 -0.46542
-1.27025 -0.81439 -0.46526
-1.26929 -0.81235 -0.46468
-1.26670 -0.80929 -0.46350
-1.26900 -0.80935 -0.46393
-1.27366 -0.81091 -0.46541
-1.27430 -0.80991 -0.46541
-1.27090 -0.80634 -0.46394
-1.27315 -0.80636 -0.46453
-1.27460 -0.80587 -0.46483
-1.27442 -0.80435 -0.46454
-1.27425 -0.80283 -0.46425
-1.27569 -0.80234 -0.46454
-1.27713 -0.80184 -0.46484
-1.27938 -0.80185 -0.46543
-1.28001 -0.80083 -0.46544
-1.28064 -0.79983 -0.46544
-1.28123 -0.79879 -0.46561
-1.28186 -0.79778 -0.46561
-1.28086 -0.79575 -0.46502
-1.27982 -0.79371 -0.46460
-1.28130 -0.79323 -0.46474
-1.28355 -0.79322 -0.46533
-1.28332 -0.79168 -0.46520
-1.28313 -0.79017 -0.46491
-1.28461 -0.78968 -0.46504
-1.28523 -0.78867 -0.46504
-1.28504 -0.78715 -0.46475
-1.28729 -0.78714 -0.46535
-1.28872 -0.78662 -0.46564
-1.28853 -0.78510 -0.46535
-1.28670 -0.78260 -0.46447
-1.28895 -0.78257 -0.46506
-1.29365 -0.78403 -0.46654
-1.29186 -0.78155 -0.46549
-1.28838 -0.77806 -0.46402
-1.28981 -0.77754 -0.46432
-1.29366 -0.77847 -0.46567
-1.29263 -0.77646 -0.46508
-1.29078 -0.77397 -0.46420
-1.28975 -0.77197 -0.46361
-1.29282 -0.77242 -0.46450
-1.29589 -0.77287 -0.46539
-1.29481 -0.77084 -0.46497
-1.29213 -0.76787 -0.46379
-1.29274 -0.76684 -0.46379
-1.29581 -0.76728 -0.46468
-1.29806 -0.76724 -0.46527
-1.29619 -0.76475 -0.46439
-1.29433 -0.76228 -0.46351
-1.29575 -0.76174 -0.46381
-1.29882 -0.76217 -0.46470
-1.30025 -0.76162 -0.46499
-1.30002 -0.76011 -0.46470
-1.30062 -0.75909 -0.46470
-1.30039 -0.75758 -0.46441
-1.29934 -0.75559 -0.46382
-1.29997 -0.75459 -0.46366
-1.30222 -0.75453 -0.46426
-1.30612 -0.75541 -0.46544
-1.30672 -0.75438 -0.46544
-1.30483 -0.75192 -0.46456
-1.30546 -0.75091 -0.46440
-1.30771 -0.75083 -0.46499
-1.30830 -0.74980 -0.46499
-1.30724 -0.74782 -0.46441
-1.30778 -0.74676 -0.46458
-1.31003 -0.74668 -0.46517
-1.30900 -0.74472 -0.46442
-1.30871 -0.74319 -0.46429
-1.31175 -0.74355 -0.46534
-1.31566 -0.74440 -0.46652
-1.31292 -0.74148 -0.46535
-1.30934 -0.73809 -0.46388
-1.31242 -0.73847 -0.46476
-1.31633 -0.73930 -0.46595
-1.31524 -0.73733 -0.46536
-1.31416 -0.73536 -0.46477
-1.31557 -0.73479 -0.46507
-1.31786 -0.73470 -0.46550
-1.31677 -0.73273 -0.46491
-1.31401 -0.72984 -0.46374
-1.31375 -0.72834 -0.46344
-1.31683 -0.72869 -0.46433
-1.31907 -0.72857 -0.46492
-1.31463 -0.72476 -0.46316
-1.31687 -0.72465 -0.46375
-1.32079 -0.72545 -0.46493
-1.32052 -0.72395 -0.46464
-1.32026 -0.72245 -0.46435
-1.32078 -0.72138 -0.46452
-1.32223 -0.72082 -0.46465
-1.32280 -0.71978 -0.46465
-1.32584 -0.72008 -0.46571
-1.32641 -0.71903 -0.46571
-1.32445 -0.71662 -0.46483
-1.32417 -0.71512 -0.46453
-1.32385 -0.71360 -0.46441
-1.32357 -0.71210 -0.46411
-1.32413 -0.71106 -0.46412
-1.32637 -0.71092 -0.46471
-1.32777 -0.71033 -0.46501
-1.32833 -0.70928 -0.46501
-1.32804 -0.70779 -0.46472
-1.33028 -0.70764 -0.46531
-1.33253 -0.70749 -0.46591
-1.33055 -0.70510 -0.46502
-1.33025 -0.70361 -0.46473
-1.33339 -0.70393 -0.46546
-1.33563 -0.70377 -0.46605
-1.33280 -0.70094 -0.46487
-1.33085 -0.69859 -0.46383
-1.33309 -0.69843 -0.46442
-1.33787 -0.69959 -0.46590
-1.33842 -0.69854 -0.46590
-1.33558 -0.69573 -0.46472
-1.33358 -0.69335 -0.46384
-1.33672 -0.69365 -0.46457
-1.33896 -0.69348 -0.46516
-1.33776 -0.69152 -0.46474
-1.33825 -0.69045 -0.46490
-1.33879 -0.68940 -0.46491
-1.33934 -0.68834 -0.46491
-1.33987 -0.68729 -0.46491
-1.34041 -0.68624 -0.46491
-1.34176 -0.68560 -0.46538
-1.34229 -0.68454 -0.46538
-1.34198 -0.68305 -0.46509
-1.34251 -0.68200 -0.46509
-1.34305 -0.68094 -0.46509
-1.34443 -0.68032 -0.46539
-1.34497 -0.67926 -0.46540
-1.34469 -0.67780 -0.46494
-1.34437 -0.67631 -0.46465
-1.34490 -0.67526 -0.46465
-1.34628 -0.67463 -0.46495
-1.34852 -0.67442 -0.46554
-1.34648 -0.67208 -0.46466
-1.34449 -0.66977 -0.46361
-1.34583 -0.66912 -0.46407
-1.34635 -0.66806 -0.46408
-1.34687 -0.66700 -0.46408
-1.34740 -0.66594 -0.46408
-1.35049 -0.66615 -0.46497
-1.35187 -0.66551 -0.46527
-1.35153 -0.66403 -0.46498
-1.34943 -0.66168 -0.46426
-1.34995 -0.66062 -0.46426
-1.35133 -0.65998 -0.46456
-1.35270 -0.65934 -0.46486
-1.35322 -0.65827 -0.46486
-1.35455 -0.65760 -0.46532
-1.35597 -0.65698 -0.46546
-1.35735 -0.65633 -0.46576
-1.35695 -0.65482 -0.46563
-1.35661 -0.65334 -0.46534
-1.35884 -0.65310 -0.46593
-1.35854 -0.65165 -0.46547
-1.35728 -0.64973 -0.46505
-1.35606 -0.64784 -0.46446
-1.35920 -0.64803 -0.46519
-1.36316 -0.64860 -0.46637
-1.36372 -0.64755 -0.46621
-1.36163 -0.64526 -0.46533
-1.36041 -0.64337 -0.46474
-1.36437 -0.64393 -0.46592
-1.36574 -0.64326 -0.46622
-1.36538 -0.64179 -0.46593
-1.36415 -0.63990 -0.46534
-1.36379 -0.63842 -0.46505
-1.36169 -0.63614 -0.46417
-1.36219 -0.63507 -0.46417
-1.36442 -0.63480 -0.46476
-1.36579 -0.63413 -0.46506
-1.36624 -0.63304 -0.46523
-1.36673 -0.63196 -0.46523
-1.36809 -0.63129 -0.46553
-1.36946 -0.63062 -0.46583
-1.36817 -0.62872 -0.46541
-1.36770 -0.62720 -0.46544
-1.36915 -0.62657 -0.46541
-1.36964 -0.62549 -0.46541
-1.37013 -0.62442 -0.46542
-1.37062 -0.62334 -0.46542
-1.37285 -0.62305 -0.46601
-1.37160 -0.62118 -0.46543
-1.37213 -0.62013 -0.46526
-1.37349 -0.61944 -0.46556
-1.37572 -0.61914 -0.46616
-1.37533 -0.61767 -0.46586
-1.37930 -0.61815 -0.46705
-1.37722 -0.61592 -0.46600
-1.37242 -0.61248 -0.46440
-1.37290 -0.61140 -0.46440
-1.37692 -0.61189 -0.46542
-1.37827 -0.61119 -0.46572
-1.37871 -0.61009 -0.46588
-1.38181 -0.61016 -0.46677
-1.38316 -0.60946 -0.46707
-1.38184 -0.60758 -0.46665
-1.38057 -0.60572 -0.46606
-1.38104 -0.60464 -0.46607
-1.37977 -0.60279 -0.46548
-1.37936 -0.60132 -0.46519
-1.38071 -0.60062 -0.46548
-1.38639 -0.60179 -0.46742
-1.38687 -0.60070 -0.46743
-1.38295 -0.59771 -0.46595
-1.38079 -0.59549 -0.46507
-1.38213 -0.59478 -0.46537
-1.38352 -0.59409 -0.46550
-1.38399 -0.59300 -0.46550
-1.38533 -0.59229 -0.46580
-1.38756 -0.59195 -0.46640
-1.38631 -0.59013 -0.46564
-1.38589 -0.58866 -0.46535
-1.38635 -0.58757 -0.46536
-1.38598 -0.58613 -0.46490
-1.38644 -0.58504 -0.46490
-1.38866 -0.58469 -0.46549
-1.39176 -0.58471 -0.46638
-1.39486 -0.58472 -0.46727
-1.39440 -0.58323 -0.46714
-1.39049 -0.58032 -0.46551
-1.39002 -0.57884 -0.46538
-1.39400 -0.57921 -0.46656
-1.39445 -0.57811 -0.46657
-1.39486 -0.57699 -0.46673
-1.39713 -0.57664 -0.46716
-1.39665 -0.57516 -0.46703
-1.39352 -0.57259 -0.46602
-1.39308 -0.57113 -0.46573
-1.39888 -0.57223 -0.46734
-1.39625 -0.56347 -0.46559
-1.43516 -0.44524 -0.46518
-1.44773 -0.42298 -0.46735
-1.44806 -0.42184 -0.46735
-1.44839 -0.42069 -0.46735
-1.45695 -0.35544 -0.46460
-1.13882 -0.98076 -0.46427
-1.15194 -0.95940 -0.46299
-1.15559 -0.96091 -0.46433
-1.17130 -0.94174 -0.46423
-1.19180 -0.92180 -0.46565
-1.19957 -0.90839 -0.46526
-1.19872 -0.90627 -0.46484
-1.20096 -0.90648 -0.46543
-1.20167 -0.90553 -0.46544
-1.20085 -0.90344 -0.46485
-1.20309 -0.90364 -0.46544
-1.20456 -0.90327 -0.46574
-1.20450 -0.90175 -0.46545
-1.20291 -0.89909 -0.46457
-1.20366 -0.89817 -0.46441
-1.20590 -0.89837 -0.46500
-1.20660 -0.89742 -0.46500
-1.20654 -0.89590 -0.46471
-1.20728 -0.89499 -0.46455
-1.20952 -0.89517 -0.46514
-1.20868 -0.89309 -0.46455
-1.20785 -0.89100 -0.46397
-1.21836 -0.87964 -0.46492
-1.21906 -0.87868 -0.46493
-1.21897 -0.87716 -0.46463
-1.23029 -0.85617 -0.46381
-1.22940 -0.85411 -0.46322
-1.24228 -0.84717 -0.46532
-1.24216 -0.84565 -0.46503
-1.24286 -0.84470 -0.46487
-1.24594 -0.84535 -0.46559
-1.24419 -0.84274 -0.46487
-1.24727 -0.84339 -0.46560
-1.24948 -0.84344 -0.46636
-1.24777 -0.84086 -0.46547
-1.24689 -0.83883 -0.46472
-1.24913 -0.83891 -0.46532
-1.25059 -0.83846 -0.46562
-1.25041 -0.83691 -0.46549
-1.24948 -0.83486 -0.46490
-1.25014 -0.83388 -0.46490
-1.25080 -0.83289 -0.46490
-1.25220 -0.83240 -0.46537
-1.25445 -0.83247 -0.46596
-1.25511 -0.83148 -0.46596
-1.25576 -0.83049 -0.46597
-1.25642 -0.82950 -0.46597
-1.25547 -0.82745 -0.46538
-1.25529 -0.82591 -0.46525
-1.25598 -0.82495 -0.46509
-1.25823 -0.82500 -0.46569
-1.25888 -0.82401 -0.46569
-1.25792 -0.82197 -0.46510
-1.25937 -0.82150 -0.46540
-1.26166 -0.82158 -0.46583
-1.26391 -0.82162 -0.46642
-1.26296 -0.81958 -0.46584
-1.26115 -0.81700 -0.46512
-1.26180 -0.81600 -0.46512
-1.26409 -0.81607 -0.46555
-1.26312 -0.81404 -0.46496
-1.26376 -0.81304 -0.46496
-1.26521 -0.81256 -0.46526
-1.26500 -0.81102 -0.46513
-1.26403 -0.80899 -0.46455
-1.26467 -0.80799 -0.46455
-1.26611 -0.80751 -0.46485
-1.26755 -0.80702 -0.46515
-1.26734 -0.80548 -0.46502
-1.26717 -0.80397 -0.46472
-1.26618 -0.80195 -0.46414
-1.26924 -0.80248 -0.46503
-1.27144 -0.80247 -0.46579
-1.27373 -0.80251 -0.46621
-1.27194 -0.79998 -0.46533
-1.27257 -0.79897 -0.46533
-1.27239 -0.79746 -0.46504
-1.27140 -0.79544 -0.46445
-1.27040 -0.79343 -0.46386
-1.26945 -0.79144 -0.46311
-1.27251 -0.79195 -0.46400
-1.27637 -0.79297 -0.46519
-1.27700 -0.79196 -0.46519
-1.27762 -0.79095 -0.46519
-1.27829 -0.78997 -0.46503
-1.27887 -0.78893 -0.46520
-1.28116 -0.78895 -0.46563
-1.28178 -0.78794 -0.46563
-1.28077 -0.78593 -0.46504
-1.28139 -0.78492 -0.46505
-1.28445 -0.78540 -0.46594
-1.28344 -0.78339 -0.46535
-1.28157 -0.78086 -0.46463
-1.28218 -0.77985 -0.46463
-1.28443 -0.77983 -0.46523
-1.28500 -0.77879 -0.46539
-1.28561 -0.77778 -0.46540
-1.28786 -0.77775 -0.46599
-1.28839 -0.77668 -0.46632
-1.28736 -0.77468 -0.46573
-1.28806 -0.77371 -0.46541
-1.29112 -0.77417 -0.46630
-1.29091 -0.77266 -0.46601
-1.28988 -0.77066 -0.46542
-1.29049 -0.76964 -0.46542
-1.29109 -0.76863 -0.46542
-1.29170 -0.76761 -0.46543
-1.29070 -0.76564 -0.46468
-1.29131 -0.76462 -0.46468
-1.29273 -0.76409 -0.46498
-1.29333 -0.76306 -0.46498
-1.29476 -0.76253 -0.46528
-1.29453 -0.76102 -0.46498
-1.29513 -0.76000 -0.46499
-1.29656 -0.75946 -0.46529
-1.29628 -0.75793 -0.46516
-1.29441 -0.75546 -0.46427
-1.29748 -0.75588 -0.46516
-1.30055 -0.75630 -0.46605
-1.30114 -0.75527 -0.46606
-1.30009 -0.75329 -0.46547
-1.30064 -0.75224 -0.46564
-1.30123 -0.75121 -0.46564
-1.30182 -0.75018 -0.46564
-1.30158 -0.74868 -0.46535
-1.30134 -0.74718 -0.46506
-1.30276 -0.74662 -0.46536
-1.30335 -0.74560 -0.46536
-1.30393 -0.74457 -0.46536
-1.30369 -0.74306 -0.46507
-1.30594 -0.74298 -0.46566
-1.30740 -0.74245 -0.46580
-1.30632 -0.74047 -0.46521
-1.30445 -0.73806 -0.46416
-1.30753 -0.73843 -0.46505
-1.30811 -0.73740 -0.46505
-1.30702 -0.73543 -0.46447
-1.30677 -0.73393 -0.46417
-1.30739 -0.73293 -0.46401
-1.30797 -0.73189 -0.46402
-1.31184 -0.73270 -0.46536
-1.31408 -0.73260 -0.46596
-1.31299 -0.73063 -0.46537
-1.31022 -0.72774 -0.46419
-1.31080 -0.72670 -0.46419
-1.31132 -0.72564 -0.46436
-1.31440 -0.72599 -0.46525
-1.31577 -0.72539 -0.46571
-1.31638 -0.72438 -0.46555
-1.31523 -0.72240 -0.46513
-1.31492 -0.72088 -0.46500
-1.31805 -0.72124 -0.46573
-1.31861 -0.72020 -0.46573
-1.31750 -0.71824 -0.46514
-1.31807 -0.71720 -0.46514
-1.32031 -0.71707 -0.46574
-1.32092 -0.71605 -0.46558
-1.31980 -0.71410 -0.46499
-1.32121 -0.71352 -0.46529
-1.32177 -0.71247 -0.46529
-1.32153 -0.71100 -0.46483
-1.32373 -0.71084 -0.46559
-1.32260 -0.70890 -0.46500
-1.32147 -0.70696 -0.46441
-1.32371 -0.70682 -0.46501
-1.32342 -0.70533 -0.46472
-1.32313 -0.70384 -0.46442
-1.32537 -0.70370 -0.46502
-1.33014 -0.70489 -0.46650
-1.32985 -0.70340 -0.46621
-1.32871 -0.70146 -0.46562
-1.32922 -0.70039 -0.46579
-1.33146 -0.70024 -0.46638
-1.33116 -0.69875 -0.46609
-1.32997 -0.69679 -0.46566
-1.33136 -0.69619 -0.46596
-1.33360 -0.69603 -0.46656
-1.33415 -0.69498 -0.46656
-1.33300 -0.69305 -0.46597
-1.33359 -0.69202 -0.46581
-1.33239 -0.69007 -0.46538
-1.33212 -0.68861 -0.46493
-1.33436 -0.68844 -0.46552
-1.33575 -0.68783 -0.46582
-1.33544 -0.68634 -0.46553
-1.33347 -0.68401 -0.46448
-1.33401 -0.68296 -0.46448
-1.33795 -0.68365 -0.46567
-1.33848 -0.68260 -0.46567
-1.33902 -0.68155 -0.46568
-1.33955 -0.68049 -0.46568
-1.34013 -0.67946 -0.46552
-1.33896 -0.67755 -0.46493
-1.33949 -0.67650 -0.46493
-1.34173 -0.67630 -0.46553
-1.34226 -0.67525 -0.46553
-1.34103 -0.67331 -0.46510
-1.34156 -0.67226 -0.46511
-1.34379 -0.67206 -0.46570
-1.34428 -0.67098 -0.46587
-1.34395 -0.66950 -0.46558
-1.34362 -0.66802 -0.46528
-1.34581 -0.66779 -0.46604
-1.34552 -0.66633 -0.46559
-1.34343 -0.66398 -0.46486
-1.34309 -0.66250 -0.46457
-1.34361 -0.66144 -0.46457
-1.34503 -0.66083 -0.46471
-1.34812 -0.66104 -0.46560
-1.34950 -0.66040 -0.46590
-1.34916 -0.65892 -0.46561
-1.35053 -0.65828 -0.46591
-1.35281 -0.65807 -0.46634
-1.35414 -0.65740 -0.46680
-1.35465 -0.65634 -0.46680
-1.34920 -0.65239 -0.46457
-1.34971 -0.65133 -0.46457
-1.35366 -0.65192 -0.46576
-1.35412 -0.65084 -0.46593
-1.35291 -0.64895 -0.46534
-1.35342 -0.64788 -0.46534
-1.35565 -0.64764 -0.46594
-1.35616 -0.64658 -0.46594
-1.35667 -0.64551 -0.46594
-1.35713 -0.64442 -0.46611
-1.35677 -0.64295 -0.46582
-1.35727 -0.64188 -0.46582
-1.36037 -0.64204 -0.46671
-1.36173 -0.64138 -0.46701
-1.36223 -0.64031 -0.46701
-1.36101 -0.63842 -0.46642
-1.36064 -0.63695 -0.46613
-1.36287 -0.63669 -0.46673
-1.36419 -0.63600 -0.46719
-1.36214 -0.63374 -0.46614
-1.35917 -0.63106 -0.46496
-1.35971 -0.63001 -0.46480
-1.36367 -0.63055 -0.46598
-1.36416 -0.62948 -0.46599
-1.36466 -0.62840 -0.46599
-1.36515 -0.62733 -0.46599
-1.36564 -0.62626 -0.46600
-1.36618 -0.62521 -0.46583
-1.36927 -0.62532 -0.46673
-1.36976 -0.62425 -0.46673
-1.36938 -0.62278 -0.46644
-1.36726 -0.62052 -0.46555
-1.36688 -0.61905 -0.46526
-1.36906 -0.61874 -0.46602
-1.37133 -0.61847 -0.46645
-1.36998 -0.61656 -0.46619
-1.41467 -0.49082 -0.46521
-1.41321 -0.48907 -0.46478
-1.42345 -0.46760 -0.46573
-1.42110 -0.46558 -0.46484
-1.43108 -0.44398 -0.46547
-1.42864 -0.44198 -0.46474
-1.44217 -0.42012 -0.46688
-1.44245 -0.41897 -0.46705
-1.15004 -0.95782 -0.46419
-1.15006 -0.95631 -0.46390
-1.15301 -0.95723 -0.46479
-1.16637 -0.93928 -0.46471
-1.16561 -0.93717 -0.46413
-1.16858 -0.93805 -0.46502
-1.19463 -0.90317 -0.46451
-1.19610 -0.90281 -0.46480
-1.19677 -0.90184 -0.46497
-1.19671 -0.90032 -0.46468
-1.19589 -0.89824 -0.46409
-1.19812 -0.89844 -0.46468
-1.19959 -0.89807 -0.46498
-1.20182 -0.89827 -0.46558
-1.20249 -0.89730 -0.46575
-1.20319 -0.89635 -0.46575
-1.20236 -0.89427 -0.46516
-1.20230 -0.89275 -0.46486
-1.20296 -0.89178 -0.46503
-1.20442 -0.89140 -0.46533
-1.20512 -0.89045 -0.46533
-1.20351 -0.88781 -0.46445
-1.20348 -0.88633 -0.46399
-1.21799 -0.87791 -0.46578
-1.21632 -0.87525 -0.46505
-1.22761 -0.85430 -0.46422
-1.22906 -0.85388 -0.46452
-1.23205 -0.85451 -0.46558
-1.24016 -0.84429 -0.46607
-1.24398 -0.84546 -0.46726
-1.24302 -0.84338 -0.46684
-1.24294 -0.84189 -0.46638
-1.24439 -0.84144 -0.46668
-1.24506 -0.84046 -0.46668
-1.24493 -0.83894 -0.46639
-1.24555 -0.83793 -0.46655
-1.24704 -0.83751 -0.46669
-1.24691 -0.83599 -0.46640
-1.24677 -0.83448 -0.46610
-1.24588 -0.83246 -0.46535
-1.24574 -0.83095 -0.46506
-1.24640 -0.82996 -0.46506
-1.24789 -0.82953 -0.46520
-1.24934 -0.82908 -0.46549
-1.24919 -0.82756 -0.46520
-1.25064 -0.82710 -0.46550
-1.25289 -0.82717 -0.46610
-1.25035 -0.82408 -0.46491
-1.25339 -0.82466 -0.46581
-1.25564 -0.82472 -0.46640
-1.25549 -0.82321 -0.46611
-1.25370 -0.82062 -0.46538
-1.25430 -0.81960 -0.46555
-1.25499 -0.81864 -0.46539
-1.25639 -0.81814 -0.46585
-1.25784 -0.81767 -0.46615
-1.25848 -0.81668 -0.46616
-1.25756 -0.81468 -0.46540
-1.25656 -0.81262 -0.46498
-1.25640 -0.81111 -0.46468
-1.25784 -0.81063 -0.46498
-1.26012 -0.81070 -0.46542
-1.26237 -0.81074 -0.46601
-1.26462 -0.81077 -0.46661
-1.26763 -0.81129 -0.46766
-1.26594 -0.80880 -0.46645
-1.26572 -0.80726 -0.46632
-1.26717 -0.80678 -0.46662
-1.26780 -0.80578 -0.46662
-1.26763 -0.80426 -0.46633
-1.26826 -0.80326 -0.46633
-1.26324 -0.79869 -0.46426
-1.26468 -0.79820 -0.46456
-1.26693 -0.79822 -0.46515
-1.26594 -0.79620 -0.46456
-1.26656 -0.79520 -0.46457
-1.26957 -0.79570 -0.46562
-1.27182 -0.79571 -0.46622
-1.27083 -0.79369 -0.46563
-1.27064 -0.79219 -0.46534
-1.26802 -0.78916 -0.46415
-1.26779 -0.78763 -0.46402
-1.27084 -0.78814 -0.46491
-1.27552 -0.78965 -0.46640
-1.27615 -0.78865 -0.46641
-1.27514 -0.78663 -0.46581
-1.27576 -0.78563 -0.46582
-1.27638 -0.78462 -0.46582
-1.27618 -0.78311 -0.46553
-1.27766 -0.78263 -0.46566
-1.27990 -0.78262 -0.46626
-1.27807 -0.78012 -0.46537
-1.27706 -0.77811 -0.46478
-1.28016 -0.77862 -0.46551
-1.28077 -0.77761 -0.46551
-1.27975 -0.77561 -0.46492
-1.28032 -0.77457 -0.46509
-1.28265 -0.77460 -0.46536
-1.28408 -0.77408 -0.46566
-1.28546 -0.77354 -0.46612
-1.28443 -0.77154 -0.46553
-1.28504 -0.77052 -0.46553
-1.28483 -0.76902 -0.46524
-1.28379 -0.76702 -0.46465
-1.28276 -0.76503 -0.46406
-1.28332 -0.76399 -0.46423
-1.28638 -0.76445 -0.46512
-1.28858 -0.76438 -0.46588
-1.28914 -0.76333 -0.46605
-1.28978 -0.76234 -0.46589
-1.29038 -0.76133 -0.46589
-1.29016 -0.75982 -0.46559
-1.28829 -0.75735 -0.46471
-1.28889 -0.75633 -0.46471
-1.29282 -0.75727 -0.46574
-1.29589 -0.75770 -0.46663
-1.29484 -0.75571 -0.46604
-1.29296 -0.75325 -0.46515
-1.29355 -0.75223 -0.46516
-1.29414 -0.75121 -0.46516
-1.29225 -0.74875 -0.46427
-1.29367 -0.74821 -0.46457
-1.29757 -0.74910 -0.46576
-1.29981 -0.74903 -0.46636
-1.29875 -0.74705 -0.46577
-1.29929 -0.74600 -0.46593
-1.29831 -0.74407 -0.46502
-1.29632 -0.74157 -0.46446
-1.29773 -0.74103 -0.46475
-1.30076 -0.74140 -0.46581
-1.30222 -0.74086 -0.46595
-1.30280 -0.73984 -0.46595
-1.30338 -0.73881 -0.46596
-1.30396 -0.73778 -0.46596
-1.30371 -0.73628 -0.46566
-1.30508 -0.73570 -0.46613
-1.30732 -0.73560 -0.46672
-1.30624 -0.73364 -0.46613
-1.30598 -0.73214 -0.46584
-1.30656 -0.73111 -0.46584
-1.30797 -0.73054 -0.46614
-1.30775 -0.72907 -0.46569
-1.30749 -0.72757 -0.46539
-1.30974 -0.72747 -0.46599
-1.30864 -0.72551 -0.46540
-1.30670 -0.72309 -0.46451
-1.30727 -0.72206 -0.46451
-1.31207 -0.72335 -0.46584
-1.31603 -0.72418 -0.46686
-1.31660 -0.72315 -0.46687
-1.31633 -0.72165 -0.46657
-1.31769 -0.72104 -0.46704
-1.31826 -0.72000 -0.46704
-1.31803 -0.71853 -0.46658
-1.31771 -0.71701 -0.46645
-1.31655 -0.71503 -0.46602
-1.31628 -0.71354 -0.46573
-1.31684 -0.71250 -0.46573
-1.31740 -0.71146 -0.46574
-1.31796 -0.71042 -0.46574
-1.32016 -0.71026 -0.46650
-1.32328 -0.71060 -0.46723
-1.32211 -0.70864 -0.46680
-1.31846 -0.70534 -0.46532
-1.31901 -0.70431 -0.46532
-1.32213 -0.70464 -0.46605
-1.32184 -0.70315 -0.46576
-1.31818 -0.69988 -0.46428
-1.32126 -0.70018 -0.46517
-1.32180 -0.69914 -0.46517
-1.32235 -0.69810 -0.46518
-1.32543 -0.69840 -0.46607
-1.32852 -0.69869 -0.46697
-1.32653 -0.69632 -0.46608
-1.32538 -0.69439 -0.46549
-1.32851 -0.69470 -0.46622
-1.33075 -0.69454 -0.46681
-1.32875 -0.69217 -0.46593
-1.32671 -0.68978 -0.46520
-1.32475 -0.68744 -0.46415
-1.32694 -0.68725 -0.46491
-1.33087 -0.68796 -0.46610
-1.33311 -0.68779 -0.46670
-1.33190 -0.68585 -0.46627
-1.33244 -0.68480 -0.46627
-1.33468 -0.68463 -0.46687
-1.33181 -0.68184 -0.46569
-1.32720 -0.67816 -0.46407
-1.33199 -0.67929 -0.46556
-1.33847 -0.68127 -0.46764
-1.33650 -0.67894 -0.46659
-1.33192 -0.67530 -0.46481
-1.33415 -0.67512 -0.46541
-1.33809 -0.67579 -0.46660
-1.33606 -0.67345 -0.46571
-1.33659 -0.67240 -0.46571
-1.33887 -0.67223 -0.46615
-1.33769 -0.67032 -0.46555
-1.33741 -0.66887 -0.46510
-1.33879 -0.66824 -0.46540
-1.34187 -0.66847 -0.46629
-1.34496 -0.66869 -0.46719
-1.34549 -0.66763 -0.46719
-1.34515 -0.66615 -0.46690
-1.34482 -0.66467 -0.46660
-1.34615 -0.66401 -0.46707
-1.34667 -0.66295 -0.46707
-1.34719 -0.66190 -0.46707
-1.34600 -0.65999 -0.46648
-1.34304 -0.65724 -0.46546
-1.34098 -0.65492 -0.46457
-1.34149 -0.65387 -0.46457
-1.34630 -0.65490 -0.46606
-1.34771 -0.65429 -0.46620
-1.34646 -0.65237 -0.46577
-1.34779 -0.65171 -0.46623
-1.38925 -0.53665 -0.46433
-1.39234 -0.53659 -0.46522
-1.40279 -0.51415 -0.46588
-1.40584 -0.51401 -0.46694
-1.41390 -0.49181 -0.46651
-1.41244 -0.49005 -0.46608
-1.41012 -0.48800 -0.46519
-1.41757 -0.46567 -0.46541
-1.41980 -0.46516 -0.46585
-1.44849 -0.36551 -0.46637
-1.44785 -0.36413 -0.46607
-1.14821 -0.95782 -0.46536
-1.15116 -0.95875 -0.46625
-1.15485 -0.96029 -0.46745
-1.16383 -0.93875 -0.46542
-1.16308 -0.93663 -0.46483
-1.16675 -0.93808 -0.46619
-1.18889 -0.89884 -0.46406
-1.19116 -0.89908 -0.46449
-1.19339 -0.89929 -0.46509
-1.19482 -0.89890 -0.46555
-1.19476 -0.89739 -0.46526
-1.19321 -0.89476 -0.46420
-1.19392 -0.89382 -0.46421
-1.19611 -0.89400 -0.46497
-1.19834 -0.89420 -0.46557
-1.19827 -0.89269 -0.46527
-1.19821 -0.89118 -0.46498
-1.20044 -0.89137 -0.46558
-1.20267 -0.89157 -0.46617
-1.20333 -0.89059 -0.46634
-1.20326 -0.88908 -0.46604
-1.20319 -0.88757 -0.46575
-1.20235 -0.88549 -0.46516
-1.23033 -0.85619 -0.46704
-1.23178 -0.85577 -0.46735
-1.24279 -0.83608 -0.46713
-1.24428 -0.83566 -0.46727
-1.24494 -0.83467 -0.46727
-1.24480 -0.83316 -0.46698
-1.24546 -0.83218 -0.46698
-1.25414 -0.81386 -0.46598
-1.25157 -0.81079 -0.46479
-1.25221 -0.80980 -0.46479
-1.25525 -0.81037 -0.46569
-1.25830 -0.81093 -0.46658
-1.25970 -0.81042 -0.46705
-1.26541 -0.79448 -0.46557
-1.26438 -0.79244 -0.46514
-1.26500 -0.79144 -0.46515
-1.26643 -0.79095 -0.46545
-1.26787 -0.79046 -0.46575
-1.26849 -0.78945 -0.46575
-1.26992 -0.78896 -0.46605
-1.27131 -0.78843 -0.46652
-1.27355 -0.78843 -0.46711
-1.27255 -0.78642 -0.46652
-1.27154 -0.78442 -0.46593
-1.27293 -0.78389 -0.46639
-1.27518 -0.78388 -0.46699
-1.27498 -0.78238 -0.46670
-1.28016 -0.77035 -0.46581
-1.27913 -0.76835 -0.46522
-1.27974 -0.76734 -0.46522
-1.28034 -0.76633 -0.46522
-1.28094 -0.76532 -0.46522
-1.28237 -0.76480 -0.46553
-1.28383 -0.76430 -0.46566
-1.28559 -0.76123 -0.46583
-1.28372 -0.75876 -0.46494
-1.28510 -0.75821 -0.46541
-1.28812 -0.75862 -0.46647
-1.28712 -0.75666 -0.46571
-1.28771 -0.75565 -0.46571
-1.29156 -0.75653 -0.46707
-1.29298 -0.75600 -0.46737
-1.29192 -0.75401 -0.46678
-1.29174 -0.75254 -0.46632
-1.29398 -0.75248 -0.46692
-1.29210 -0.75002 -0.46603
-1.29021 -0.74757 -0.46514
-1.29575 -0.74941 -0.46693
-1.29469 -0.74744 -0.46634
-1.29197 -0.74451 -0.46515
-1.29260 -0.74351 -0.46499
-1.29650 -0.74440 -0.46618
-1.29870 -0.74430 -0.46694
-1.29845 -0.74280 -0.46665
-1.29821 -0.74130 -0.46636
-1.29967 -0.74077 -0.46649
-1.30020 -0.73972 -0.46666
-1.29996 -0.73822 -0.46636
-1.30622 -0.72686 -0.46672
-1.30929 -0.72722 -0.46762
-1.30569 -0.72387 -0.46613
-1.30292 -0.72099 -0.46494
-1.30599 -0.72135 -0.46584
-1.31162 -0.72311 -0.46747
-1.31612 -0.70277 -0.46573
-1.31920 -0.70308 -0.46663
-1.31807 -0.70115 -0.46604
-1.31271 -0.69698 -0.46395
-1.31326 -0.69595 -0.46396
-1.32056 -0.69848 -0.46634
-1.32359 -0.69876 -0.46740
-1.32572 -0.67609 -0.46461
-1.32450 -0.67416 -0.46418
-1.32843 -0.67485 -0.46538
-1.34066 -0.65477 -0.46571
-1.34198 -0.65411 -0.46617
-1.34512 -0.65433 -0.46691
-1.35882 -0.60641 -0.46513
-1.37316 -0.55793 -0.46363
-1.37448 -0.55720 -0.46393
-1.38709 -0.53582 -0.46503
-1.38840 -0.53507 -0.46533
-1.39842 -0.51380 -0.46599
-1.39972 -0.51302 -0.46629
-1.40102 -0.51225 -0.46659
-1.41432 -0.49195 -0.46844
-1.41020 -0.48927 -0.46695
-1.40788 -0.48722 -0.46606
-1.44342 -0.36423 -0.46634
-1.44191 -0.36263 -0.46558
-1.14569 -0.95573 -0.46577
-1.14864 -0.95666 -0.46667
-1.16124 -0.93666 -0.46599
-1.16198 -0.93575 -0.46600
-1.16420 -0.93603 -0.46660
-1.17655 -0.91741 -0.46589
-1.17648 -0.91587 -0.46576
-1.17724 -0.91497 -0.46560
-1.19076 -0.89878 -0.46612
-1.18841 -0.89554 -0.46493
-1.18759 -0.89346 -0.46433
-1.18982 -0.89367 -0.46493
-1.19204 -0.89389 -0.46553
-1.19122 -0.89180 -0.46494
-1.19039 -0.88972 -0.46435
-1.19108 -0.88879 -0.46435
-1.19331 -0.88899 -0.46495
-1.19401 -0.88806 -0.46495
-1.19547 -0.88769 -0.46525
-1.19847 -0.88845 -0.46615
-1.19912 -0.88748 -0.46631
-1.19828 -0.88540 -0.46572
-1.19744 -0.88333 -0.46513
-1.20044 -0.88409 -0.46603
-1.20036 -0.88258 -0.46573
-1.23915 -0.83221 -0.46695
-1.24139 -0.83229 -0.46755
-1.24284 -0.83184 -0.46785
-1.25199 -0.81106 -0.46655
-1.25027 -0.80855 -0.46550
-1.25006 -0.80702 -0.46536
-1.25390 -0.80810 -0.46656
-1.26339 -0.78766 -0.46588
-1.26644 -0.78818 -0.46678
-1.26710 -0.78720 -0.46662
-1.26687 -0.78567 -0.46649
-1.27542 -0.76612 -0.46565
-1.27439 -0.76414 -0.46505
-1.27663 -0.76411 -0.46565
-1.28055 -0.76509 -0.46669
-1.28788 -0.74486 -0.46587
-1.28846 -0.74384 -0.46587
-1.28818 -0.74232 -0.46574
-1.28798 -0.74086 -0.46528
-1.29270 -0.74221 -0.46678
-1.30112 -0.72134 -0.46610
-1.29997 -0.71936 -0.46567
-1.30388 -0.72018 -0.46687
-1.31345 -0.69869 -0.46601
-1.31227 -0.69674 -0.46557
-1.30944 -0.69392 -0.46438
-1.31167 -0.69378 -0.46498
-1.32526 -0.67586 -0.46623
-1.32579 -0.67482 -0.46624
-1.32632 -0.67377 -0.46624
-1.33501 -0.65201 -0.46570
-1.33466 -0.65054 -0.46541
-1.33522 -0.64951 -0.46525
-1.34520 -0.62843 -0.46547
-1.34396 -0.62657 -0.46487
-1.35749 -0.60581 -0.46646
-1.35448 -0.60319 -0.46526
-1.36290 -0.58143 -0.46502
-1.36424 -0.58073 -0.46532
-1.36645 -0.58040 -0.46592
-1.37534 -0.55881 -0.46615
-1.37490 -0.55737 -0.46585
-1.37534 -0.55629 -0.46585
-1.38577 -0.53531 -0.46619
-1.38797 -0.53490 -0.46679
-1.39118 -0.50989 -0.46522
-1.42657 -0.38522 -0.46465
-1.42687 -0.38410 -0.46465
-1.15795 -0.93401 -0.46610
-1.15869 -0.93310 -0.46610
-1.17545 -0.91506 -0.46660
-1.17767 -0.91531 -0.46720
-1.18434 -0.89393 -0.46503
-1.18809 -0.89530 -0.46622
-1.18879 -0.89436 -0.46623
-1.18720 -0.89171 -0.46533
-1.18943 -0.89192 -0.46593
-1.19242 -0.89270 -0.46683
-1.19159 -0.89062 -0.46624
-1.19000 -0.88798 -0.46535
-1.19069 -0.88704 -0.46535
-1.19139 -0.88611 -0.46535
-1.19208 -0.88517 -0.46535
-1.19278 -0.88423 -0.46536
-1.19347 -0.88330 -0.46536
-1.19493 -0.88292 -0.46566
-1.19635 -0.88252 -0.46613
-1.19704 -0.88158 -0.46613
-1.20321 -0.87304 -0.46632
-1.20158 -0.87041 -0.46542
-1.25169 -0.81087 -0.46769
-1.24908 -0.80778 -0.46666
-1.26389 -0.78798 -0.46732
-1.26051 -0.78449 -0.46566
-1.27818 -0.76641 -0.46768
-1.27960 -0.76589 -0.46799
-1.28729 -0.74316 -0.46687
-1.28544 -0.74074 -0.46581
-1.28515 -0.73923 -0.46568
-1.28826 -0.73966 -0.46642
-1.29909 -0.72022 -0.46680
-1.29882 -0.71873 -0.46650
-1.29772 -0.71678 -0.46591
-1.30551 -0.69447 -0.46460
-1.30938 -0.69521 -0.46597
-1.31161 -0.69507 -0.46657
-1.32442 -0.67674 -0.46737
-1.32240 -0.67439 -0.46647
-1.32293 -0.67336 -0.46647
-1.32426 -0.67273 -0.46694
-1.33594 -0.65376 -0.46727
-1.33302 -0.65104 -0.46607
-1.33010 -0.64832 -0.46488
-1.33969 -0.62586 -0.46480
-1.34445 -0.62680 -0.46647
-1.34495 -0.62574 -0.46647
-1.35542 -0.60489 -0.46699
-1.35415 -0.60305 -0.46639
-1.35463 -0.60198 -0.46640
-1.35952 -0.57872 -0.46495
-1.36173 -0.57840 -0.46556
-1.37148 -0.55724 -0.46608
-1.37280 -0.55652 -0.46638
-1.37501 -0.55616 -0.46698
-1.38497 -0.53375 -0.46702
-1.41113 -0.43412 -0.46536
-1.40964 -0.43245 -0.46477
-1.41994 -0.41121 -0.46603
-1.42026 -0.41009 -0.46603
-1.42150 -0.40924 -0.46633
-1.12953 -0.94827 -0.46375
-1.18161 -0.89187 -0.46590
-1.18235 -0.89097 -0.46574
-1.18381 -0.89062 -0.46605
-1.18298 -0.88854 -0.46545
-1.18215 -0.88647 -0.46485
-1.18209 -0.88497 -0.46456
-1.18354 -0.88461 -0.46486
-1.18424 -0.88368 -0.46486
-1.18493 -0.88275 -0.46486
-1.18711 -0.88293 -0.46563
-1.18857 -0.88256 -0.46593
-1.18849 -0.88106 -0.46564
-1.18765 -0.87899 -0.46504
-1.18911 -0.87862 -0.46534
-1.19052 -0.87823 -0.46581
-1.18968 -0.87616 -0.46521
-1.18883 -0.87409 -0.46461
-1.19979 -0.87201 -0.46703
-1.19662 -0.86826 -0.46553
-1.19580 -0.86623 -0.46478
-1.21071 -0.84680 -0.46530
-1.29531 -0.71812 -0.46721
-1.29421 -0.71617 -0.46662
-1.30556 -0.69318 -0.46638
-1.31510 -0.67068 -0.46584
-1.31733 -0.67051 -0.46645
-1.35025 -0.60131 -0.46664
-1.39662 -0.45634 -0.46464
-1.39607 -0.45494 -0.46434
-1.39824 -0.45443 -0.46495
-1.40882 -0.43341 -0.46637
-1.40642 -0.43146 -0.46547
-1.42343 -0.41101 -0.46885
-1.12621 -0.94699 -0.46445
-1.12914 -0.94795 -0.46535
-1.13212 -0.94893 -0.46610
-1.14385 -0.92709 -0.46481
-1.17890 -0.88837 -0.46615
-1.17731 -0.88573 -0.46525
-1.17652 -0.88369 -0.46449
-1.17645 -0.88219 -0.46420
-1.17863 -0.88238 -0.46496
-1.18085 -0.88259 -0.46557
-1.17997 -0.88049 -0.46513
-1.17989 -0.87900 -0.46483
-1.18135 -0.87864 -0.46513
-1.18204 -0.87771 -0.46514
-1.18196 -0.87621 -0.46484
-1.18341 -0.87585 -0.46514
-1.18563 -0.87606 -0.46575
-1.18785 -0.87626 -0.46635
-1.18854 -0.87532 -0.46636
-1.18769 -0.87326 -0.46576
-1.18607 -0.87063 -0.46486
-1.18525 -0.86860 -0.46409
-1.19256 -0.86675 -0.46546
-1.19402 -0.86637 -0.46576
-1.19547 -0.86599 -0.46606
-1.20882 -0.84548 -0.46598
-1.21030 -0.84510 -0.46613
-1.22176 -0.82473 -0.46607
-1.22167 -0.82327 -0.46561
-1.22073 -0.82124 -0.46501
-1.23335 -0.80037 -0.46477
-1.23638 -0.80095 -0.46568
-1.37900 -0.50296 -0.46581
-1.37761 -0.50122 -0.46521
-1.39078 -0.48130 -0.46692
-1.38936 -0.47958 -0.46632
-1.39063 -0.47880 -0.46663
-1.39776 -0.45427 -0.46655
-1.40820 -0.43079 -0.46736
-1.42011 -0.35120 -0.46494
-1.12586 -0.94670 -0.46589
-1.14277 -0.92770 -0.46626
-1.14201 -0.92560 -0.46565
-1.14348 -0.92530 -0.46596
-1.17312 -0.88402 -0.46581
-1.17305 -0.88253 -0.46551
-1.17222 -0.88046 -0.46491
-1.17444 -0.88068 -0.46551
-1.17746 -0.88150 -0.46626
-1.17738 -0.88001 -0.46596
-1.17731 -0.87851 -0.46566
-1.17953 -0.87872 -0.46627
-1.17796 -0.87612 -0.46521
-1.17712 -0.87406 -0.46461
-1.17933 -0.87427 -0.46521
-1.18232 -0.87504 -0.46612
-1.18300 -0.87411 -0.46613
-1.18143 -0.87152 -0.46506
-1.18211 -0.87059 -0.46507
-1.18280 -0.86966 -0.46507
-1.18348 -0.86873 -0.46507
-1.19125 -0.86436 -0.46662
-1.20293 -0.84136 -0.46548
-1.21766 -0.82336 -0.46598
-1.21831 -0.82240 -0.46598
-1.21975 -0.82197 -0.46629
-1.23011 -0.80103 -0.46560
-1.23154 -0.80058 -0.46591
-1.23137 -0.79909 -0.46561
-1.24357 -0.77804 -0.46553
-1.24257 -0.77604 -0.46492
-1.25197 -0.75338 -0.46377
-1.25497 -0.75384 -0.46485
-1.34634 -0.57186 -0.46538
-1.35567 -0.54958 -0.46512
-1.35782 -0.54921 -0.46589
-1.36532 -0.52494 -0.46535
-1.36485 -0.52353 -0.46505
-1.37594 -0.50184 -0.46618
-1.37543 -0.50043 -0.46588
-1.38299 -0.47617 -0.46564
-1.41506 -0.37733 -0.46649
-1.41351 -0.37572 -0.46588
-1.41949 -0.35224 -0.46605
-1.41884 -0.35089 -0.46575
-1.13880 -0.92597 -0.46616
-1.13949 -0.92504 -0.46633
-1.14244 -0.92594 -0.46724
-1.15153 -0.90227 -0.46488
-1.16773 -0.88284 -0.46509
-1.16994 -0.88307 -0.46570
-1.17209 -0.88180 -0.46600
-1.17049 -0.87916 -0.46510
-1.17118 -0.87824 -0.46510
-1.17107 -0.87672 -0.46496
-1.17023 -0.87466 -0.46436
-1.17087 -0.87371 -0.46452
-1.17309 -0.87393 -0.46513
-1.17377 -0.87300 -0.46513
-1.17446 -0.87208 -0.46514
-1.17667 -0.87229 -0.46574
-1.17965 -0.87307 -0.46666
-1.17880 -0.87101 -0.46605
-1.17795 -0.86895 -0.46545
-1.17863 -0.86803 -0.46545
-1.17859 -0.86657 -0.46499
-1.17773 -0.86451 -0.46439
-1.17918 -0.86415 -0.46470
-1.21319 -0.81895 -0.46560
-1.21463 -0.81852 -0.46591
-1.23431 -0.80238 -0.46872
-1.23174 -0.79933 -0.46751
-1.24004 -0.77582 -0.46543
-1.24465 -0.77734 -0.46711
-1.25429 -0.75613 -0.46626
-1.25248 -0.75369 -0.46519
-1.24976 -0.75071 -0.46414
-1.26453 -0.73135 -0.46495
-1.26510 -0.73035 -0.46496
-1.28280 -0.71250 -0.46730
-1.28086 -0.71011 -0.46639
-1.28142 -0.70910 -0.46640
-1.28950 -0.68595 -0.46556
-1.29004 -0.68494 -0.46557
-1.29860 -0.66226 -0.46472
-1.29996 -0.66167 -0.46502
-1.31068 -0.64013 -0.46509
-1.31204 -0.63952 -0.46539
-1.32636 -0.59067 -0.46309
-1.34118 -0.57092 -0.46497
-1.34250 -0.57023 -0.46528
-1.34470 -0.56992 -0.46589
-1.35038 -0.54620 -0.46474
-1.35434 -0.54656 -0.46596
-1.36569 -0.52508 -0.46741
-1.36432 -0.52333 -0.46680
-1.36300 -0.52159 -0.46604
-1.37098 -0.50004 -0.46625
-1.37048 -0.49863 -0.46595
-1.39596 -0.39831 -0.46393
-1.39810 -0.39773 -0.46454
-1.40168 -0.37376 -0.46382
-1.40192 -0.37264 -0.46398
-1.13918 -0.92478 -0.46761
-1.14676 -0.89998 -0.46463
-1.14746 -0.89908 -0.46464
-1.16435 -0.88172 -0.46577
-1.16504 -0.88080 -0.46577
-1.16726 -0.88104 -0.46638
-1.16711 -0.87806 -0.46578
-1.16632 -0.87603 -0.46502
-1.16853 -0.87625 -0.46563
-1.17074 -0.87648 -0.46624
-1.17067 -0.87499 -0.46593
-1.16906 -0.87236 -0.46503
-1.17127 -0.87258 -0.46564
-1.17349 -0.87279 -0.46625
-1.17421 -0.87190 -0.46609
-1.17260 -0.86928 -0.46518
-1.17171 -0.86719 -0.46474
-1.17469 -0.86797 -0.46565
-1.17690 -0.86818 -0.46626
-1.17601 -0.86609 -0.46582
-1.17361 -0.86291 -0.46460
-1.17506 -0.86255 -0.46491
-1.17650 -0.86219 -0.46522
-1.17641 -0.86070 -0.46492
-1.24373 -0.77814 -0.46823
-1.24192 -0.77564 -0.46732
-1.25227 -0.75491 -0.46709
-1.25204 -0.75343 -0.46679
-1.25105 -0.75148 -0.46602
-1.26244 -0.73015 -0.46594
-1.26714 -0.73153 -0.46746
-1.27019 -0.73196 -0.46838
-1.27517 -0.70959 -0.46630
-1.27407 -0.70766 -0.46570
-1.27296 -0.70573 -0.46509
-1.27514 -0.70562 -0.46586
-1.28815 -0.68783 -0.46651
-1.28533 -0.68503 -0.46530
-1.28503 -0.68357 -0.46500
-1.28552 -0.68254 -0.46516
-1.29781 -0.66314 -0.46567
-1.29833 -0.66212 -0.46567
-1.29791 -0.66062 -0.46569
-1.30955 -0.63958 -0.46573
-1.30915 -0.63811 -0.46559
-1.32035 -0.61682 -0.46596
-1.31910 -0.61498 -0.46535
-1.32131 -0.61475 -0.46596
-1.33552 -0.59475 -0.46787
-1.33424 -0.59292 -0.46726
-1.34125 -0.56970 -0.46625
-1.34165 -0.56863 -0.46641
-1.35614 -0.54853 -0.46830
-1.35475 -0.54673 -0.46785
-1.36368 -0.52431 -0.46760
-1.36320 -0.52289 -0.46729
-1.38751 -0.42207 -0.46498
-1.39795 -0.40007 -0.46626
-1.39827 -0.39897 -0.46627
-1.39766 -0.39760 -0.46597
-1.40129 -0.37366 -0.46508
-1.15575 -0.87663 -0.46399
-1.16019 -0.87857 -0.46568
-1.16320 -0.87941 -0.46643
-1.16744 -0.87687 -0.46721
-1.16355 -0.87252 -0.46539
-1.16195 -0.86989 -0.46448
-1.16568 -0.87126 -0.46570
-1.16713 -0.87091 -0.46601
-1.16628 -0.86886 -0.46540
-1.16777 -0.86854 -0.46555
-1.16845 -0.86762 -0.46555
-1.16684 -0.86500 -0.46464
-1.16828 -0.86465 -0.46495
-1.17206 -0.86603 -0.46601
-1.17274 -0.86511 -0.46601
-1.17188 -0.86306 -0.46541
-1.17179 -0.86157 -0.46511
-1.17400 -0.86178 -0.46572
-1.17545 -0.86142 -0.46603
-1.17459 -0.85937 -0.46542
-1.17450 -0.85788 -0.46512
-1.17517 -0.85695 -0.46512
-1.18681 -0.83568 -0.46443
-1.18669 -0.83419 -0.46413
-1.25006 -0.75223 -0.46745
-1.24735 -0.74926 -0.46639
-1.26427 -0.72987 -0.46798
-1.27376 -0.70748 -0.46681
-1.27265 -0.70556 -0.46620
-1.28409 -0.68437 -0.46642
-1.28378 -0.68291 -0.46612
-1.28348 -0.68145 -0.46582
-1.29278 -0.65929 -0.46543
-1.29250 -0.65787 -0.46497
-1.30653 -0.63810 -0.46641
-1.30617 -0.63666 -0.46610
-1.33339 -0.56512 -0.46493
-1.37412 -0.44420 -0.46450
-1.37447 -0.44311 -0.46451
-1.38497 -0.42249 -0.46563
-1.38256 -0.42057 -0.46472
-1.38472 -0.42003 -0.46533
-1.39971 -0.39938 -0.46815
-1.39636 -0.39723 -0.46693
-1.10632 -0.93771 -0.46505
-1.10706 -0.93684 -0.46506
-1.10925 -0.93720 -0.46567
-1.15771 -0.87669 -0.46555
-1.16220 -0.87865 -0.46708
-1.15802 -0.86979 -0.46466
-1.15794 -0.86831 -0.46436
-1.16090 -0.86911 -0.46528
-1.16311 -0.86934 -0.46589
-1.16222 -0.86725 -0.46544
-1.16061 -0.86463 -0.46453
-1.16282 -0.86486 -0.46514
-1.16583 -0.86568 -0.46590
-1.16651 -0.86476 -0.46591
-1.16489 -0.86215 -0.46499
-1.16404 -0.86010 -0.46438
-1.16697 -0.86085 -0.46546
-1.16922 -0.86109 -0.46592
-1.16989 -0.86017 -0.46592
-1.16980 -0.85869 -0.46562
-1.17124 -0.85833 -0.46593
-1.17196 -0.85744 -0.46577
-1.17182 -0.85592 -0.46563
-1.17254 -0.85503 -0.46547
-1.17548 -0.85575 -0.46655
-1.18648 -0.83544 -0.46569
-1.18480 -0.83286 -0.46478
-1.18624 -0.83248 -0.46509
-1.20217 -0.81427 -0.46622
-1.26757 -0.70405 -0.46594
-1.37353 -0.44520 -0.46529
-1.37383 -0.44410 -0.46545
-1.37418 -0.44302 -0.46545
-1.38678 -0.42185 -0.46735
-1.38711 -0.42075 -0.46736
-1.10758 -0.93878 -0.46646
-1.10682 -0.93665 -0.46601
-1.11846 -0.91527 -0.46438
-1.11991 -0.91500 -0.46469
-1.15769 -0.86812 -0.46531
-1.15837 -0.86721 -0.46531
-1.16134 -0.86801 -0.46623
-1.15744 -0.86369 -0.46440
-1.15579 -0.86104 -0.46364
-1.15871 -0.86181 -0.46472
-1.16398 -0.86430 -0.46656
-1.16699 -0.86512 -0.46732
-1.16461 -0.86193 -0.46610
-1.16145 -0.85819 -0.46457
-1.16370 -0.85844 -0.46503
-1.16590 -0.85865 -0.46564
-1.16504 -0.85661 -0.46503
-1.16572 -0.85569 -0.46504
-1.16873 -0.85649 -0.46580
-1.16864 -0.85501 -0.46550
-1.16628 -0.85187 -0.46412
-1.16844 -0.85204 -0.46489
-1.18078 -0.83143 -0.46450
-1.18460 -0.83272 -0.46557
-1.18759 -0.83342 -0.46649
-1.19734 -0.81238 -0.46564
-1.19640 -0.81037 -0.46503
-1.19704 -0.80942 -0.46503
-1.21124 -0.79147 -0.46570
-1.21102 -0.78996 -0.46556
-1.22453 -0.76882 -0.46562
-1.35466 -0.49045 -0.46534
-1.35684 -0.49003 -0.46596
-1.36332 -0.46579 -0.46541
-1.37264 -0.44372 -0.46609
-1.37747 -0.44408 -0.46778
-1.39740 -0.34208 -0.46520
-1.39494 -0.34031 -0.46412
-1.10722 -0.93997 -0.46818
-1.10650 -0.93787 -0.46757
-1.10724 -0.93700 -0.46758
-1.11594 -0.91321 -0.46472
-1.11739 -0.91293 -0.46503
-1.15669 -0.86879 -0.46656
-1.15432 -0.86560 -0.46534
-1.15424 -0.86412 -0.46503
-1.15640 -0.86432 -0.46581
-1.15708 -0.86341 -0.46581
-1.15550 -0.86083 -0.46474
-1.15690 -0.86046 -0.46520
-1.16067 -0.86185 -0.46628
-1.16211 -0.86150 -0.46659
-1.16126 -0.85946 -0.46598
-1.16193 -0.85854 -0.46598
-1.16414 -0.85876 -0.46660
-1.16481 -0.85785 -0.46660
-1.16242 -0.85468 -0.46537
-1.16159 -0.85267 -0.46461
-1.16303 -0.85232 -0.46492
-1.16293 -0.85084 -0.46461
-1.16279 -0.84933 -0.46447
-1.16500 -0.84953 -0.46508
-1.18123 -0.83175 -0.46606
-1.18111 -0.83027 -0.46576
-1.19700 -0.81215 -0.46690
-1.19764 -0.81120 -0.46690
-1.21086 -0.79122 -0.46712
-1.21148 -0.79026 -0.46712
-1.20971 -0.78775 -0.46620
-1.21884 -0.76658 -0.46472
-1.21698 -0.76407 -0.46396
-1.21597 -0.76210 -0.46335
-1.23330 -0.74480 -0.46525
-1.23470 -0.74431 -0.46556
-1.31843 -0.55879 -0.46316
-1.31970 -0.55810 -0.46363
-1.33313 -0.53800 -0.46523
-1.33262 -0.53658 -0.46508
-1.34169 -0.51343 -0.46514
-1.33942 -0.51136 -0.46422
-1.35300 -0.49106 -0.46629
-1.35249 -0.48967 -0.46598
-1.35471 -0.48926 -0.46644
-1.38907 -0.36571 -0.46566
-1.38936 -0.36461 -0.46566
-1.39613 -0.34177 -0.46598
-1.39820 -0.34110 -0.46676
-1.11706 -0.91412 -0.46675
-1.11847 -0.91382 -0.46722
-1.12524 -0.88881 -0.46358
-1.12892 -0.89029 -0.46481
-1.13332 -0.89231 -0.46651
-1.14407 -0.87061 -0.46503
-1.15319 -0.86475 -0.46645
-1.15540 -0.86499 -0.46707
-1.15607 -0.86408 -0.46707
-1.15446 -0.86146 -0.46615
-1.15438 -0.85999 -0.46584
-1.15658 -0.86021 -0.46646
-1.15806 -0.85990 -0.46661
-1.15487 -0.85613 -0.46524
-1.15023 -0.85129 -0.46293
-1.15242 -0.85152 -0.46354
-1.15768 -0.85400 -0.46540
-1.15912 -0.85366 -0.46570
-1.15672 -0.85049 -0.46448
-1.15590 -0.84849 -0.46371
-1.15886 -0.84926 -0.46463
-1.15953 -0.84835 -0.46464
-1.15943 -0.84687 -0.46433
-1.16164 -0.84708 -0.46495
-1.16461 -0.84784 -0.46588
-1.20494 -0.78735 -0.46623
-1.20875 -0.78848 -0.46746
-1.21021 -0.78807 -0.46761
-1.21921 -0.76682 -0.46660
-1.22058 -0.76633 -0.46707
-1.22118 -0.76537 -0.46707
-1.22992 -0.74408 -0.46558
-1.22725 -0.74114 -0.46435
-1.22946 -0.74116 -0.46497
-1.23408 -0.74261 -0.46667
-1.23986 -0.71970 -0.46457
-1.24125 -0.71920 -0.46488
-1.24507 -0.72010 -0.46627
-1.25547 -0.69992 -0.46587
-1.25357 -0.69757 -0.46479
-1.25578 -0.69750 -0.46541
-1.26510 -0.67425 -0.46470
-1.26647 -0.67370 -0.46501
-1.27363 -0.64952 -0.46369
-1.27498 -0.64895 -0.46400
-1.28545 -0.62780 -0.46422
-1.28851 -0.62804 -0.46515
-1.29499 -0.62994 -0.46731
-1.30945 -0.58314 -0.46512
-1.30899 -0.58170 -0.46497
-1.30776 -0.57992 -0.46420
-1.32278 -0.56186 -0.46657
-1.32322 -0.56081 -0.46658
-1.32279 -0.55940 -0.46627
-1.32322 -0.55836 -0.46627
-1.33271 -0.53783 -0.46664
-1.33313 -0.53678 -0.46664
-1.33183 -0.53504 -0.46587
-1.33949 -0.51259 -0.46593
-1.33811 -0.51086 -0.46532
-1.38621 -0.36378 -0.46599
-1.38925 -0.36341 -0.46692
-1.12999 -0.89401 -0.46808
-1.13073 -0.89315 -0.46792
-1.14003 -0.87037 -0.46567
-1.13920 -0.86832 -0.46505
-1.14060 -0.86797 -0.46552
-1.14200 -0.86762 -0.46599
-1.14513 -0.85730 -0.46447
-1.14809 -0.85811 -0.46540
-1.14952 -0.85778 -0.46571
-1.15096 -0.85744 -0.46602
-1.15010 -0.85540 -0.46540
-1.14848 -0.85280 -0.46448
-1.14992 -0.85246 -0.46479
-1.15058 -0.85156 -0.46479
-1.14972 -0.84952 -0.46418
-1.15111 -0.84915 -0.46465
-1.15637 -0.85163 -0.46650
-1.15781 -0.85129 -0.46682
-1.15541 -0.84813 -0.46558
-1.15377 -0.84553 -0.46466
-1.15444 -0.84462 -0.46466
-1.15510 -0.84371 -0.46466
-1.15803 -0.84445 -0.46575
-1.21476 -0.76401 -0.46662
-1.21697 -0.76406 -0.46724
-1.21676 -0.76260 -0.46693
-1.22451 -0.74081 -0.46560
-1.22673 -0.74083 -0.46622
-1.22731 -0.73986 -0.46623
-1.23942 -0.71945 -0.46613
-1.24241 -0.71987 -0.46722
-1.24298 -0.71889 -0.46722
-1.25083 -0.69733 -0.46604
-1.25221 -0.69681 -0.46635
-1.25525 -0.69720 -0.46729
-1.26298 -0.67312 -0.46564
-1.26267 -0.67168 -0.46534
-1.27944 -0.65375 -0.46772
-1.27995 -0.65275 -0.46773
-1.28046 -0.65174 -0.46773
-1.27928 -0.64987 -0.46711
-1.29017 -0.63011 -0.46748
-1.28980 -0.62868 -0.46717
-1.28949 -0.62727 -0.46671
-1.30889 -0.58289 -0.46699
-1.30848 -0.58148 -0.46669
-1.30720 -0.57968 -0.46607
-1.32008 -0.55948 -0.46737
-1.32052 -0.55844 -0.46737
-1.33131 -0.53726 -0.46805
-1.32996 -0.53551 -0.46743
-1.36608 -0.41202 -0.46590
-1.36918 -0.41178 -0.46668
-1.37580 -0.38904 -0.46674
-1.37422 -0.38742 -0.46628
-1.37636 -0.38685 -0.46690
-1.08517 -0.92715 -0.46455
-1.08297 -0.92379 -0.46347
-1.14039 -0.87064 -0.46754
-1.13729 -0.86686 -0.46599
-1.13801 -0.86599 -0.46584
-1.14315 -0.85442 -0.46494
-1.14306 -0.85295 -0.46464
-1.14445 -0.85259 -0.46510
-1.14970 -0.85510 -0.46697
-1.14808 -0.85249 -0.46604
-1.14493 -0.84876 -0.46449
-1.14479 -0.84727 -0.46434
-1.14702 -0.84752 -0.46481
-1.14841 -0.84716 -0.46528
-1.14911 -0.84629 -0.46512
-1.15131 -0.84651 -0.46575
-1.15121 -0.84504 -0.46544
-1.15110 -0.84357 -0.46513
-1.15253 -0.84323 -0.46544
-1.15320 -0.84232 -0.46545
-1.15309 -0.84085 -0.46514
-1.15452 -0.84050 -0.46545
-1.17851 -0.79960 -0.46449
-1.17757 -0.79761 -0.46387
-1.17977 -0.79774 -0.46449
-1.18276 -0.79841 -0.46543
-1.22212 -0.73673 -0.46546
-1.24682 -0.69381 -0.46590
-1.24737 -0.69283 -0.46590
-1.25913 -0.67106 -0.46612
-1.26049 -0.67052 -0.46643
-1.27696 -0.65122 -0.46836
-1.28715 -0.62863 -0.46811
-1.28764 -0.62762 -0.46812
-1.34521 -0.45723 -0.46515
-1.34372 -0.45554 -0.46469
-1.35569 -0.43470 -0.46600
-1.35060 -0.43189 -0.46413
-1.34913 -0.43025 -0.46351
