-1.16377 -0.99272 -0.46580
-1.17707 -0.97253 -0.46465
-1.17931 -0.97282 -0.46524
-1.21880 -0.92596 -0.46597
-1.21495 -0.92153 -0.46423
-1.21567 -0.92058 -0.46423
-1.21868 -0.92136 -0.46511
-1.22013 -0.92094 -0.46557
-1.22161 -0.92056 -0.46587
-1.22310 -0.92018 -0.46616
-1.22301 -0.91861 -0.46604
-1.22144 -0.91593 -0.46517
-1.22522 -0.91726 -0.46634
-1.22521 -0.91575 -0.46588
-1.22359 -0.91305 -0.46518
-1.22281 -0.91097 -0.46443
-1.22583 -0.91172 -0.46531
-1.22885 -0.91247 -0.46619
-1.22803 -0.91036 -0.46560
-1.22797 -0.90883 -0.46532
-1.24216 -0.89087 -0.46583
-1.24364 -0.89045 -0.46613
-1.25834 -0.87128 -0.46631
-1.25667 -0.86865 -0.46544
-1.25893 -0.86875 -0.46603
-1.26702 -0.84658 -0.46434
-1.27007 -0.84717 -0.46521
-1.27313 -0.84776 -0.46609
-1.34015 -0.73884 -0.46704
-1.36114 -0.69281 -0.46663
-1.36419 -0.69301 -0.46767
-1.36897 -0.66859 -0.46535
-1.37035 -0.66794 -0.46565
-1.38417 -0.64796 -0.46671
-1.38901 -0.64890 -0.46818
-1.38779 -0.64700 -0.46759
-1.38309 -0.64349 -0.46585
-1.38971 -0.62413 -0.46564
-1.39194 -0.62382 -0.46623
-1.39418 -0.62350 -0.46682
-1.39471 -0.62243 -0.46666
-1.39258 -0.62016 -0.46578
-1.39482 -0.61984 -0.46637
-1.39618 -0.61913 -0.46667
-1.39666 -0.61803 -0.46667
-1.39540 -0.61616 -0.46609
-1.39413 -0.61429 -0.46551
-1.39461 -0.61320 -0.46551
-1.39329 -0.61131 -0.46509
-1.39115 -0.60906 -0.46422
-1.39075 -0.60758 -0.46393
-1.39648 -0.60878 -0.46569
-1.40047 -0.60921 -0.46686
-1.40095 -0.60811 -0.46686
-1.39791 -0.60549 -0.46570
-1.39571 -0.60323 -0.46499
-1.39267 -0.60061 -0.46382
-1.39490 -0.60027 -0.46441
-1.39976 -0.60106 -0.46587
-1.40194 -0.60069 -0.46663
-1.40070 -0.59886 -0.46588
-1.39941 -0.59701 -0.46530
-1.40076 -0.59628 -0.46559
-1.40123 -0.59518 -0.46560
-1.39994 -0.59333 -0.46502
-1.40221 -0.59299 -0.46544
-1.40444 -0.59263 -0.46603
-1.40402 -0.59116 -0.46574
-1.40272 -0.58931 -0.46515
-1.40318 -0.58821 -0.46516
-1.40369 -0.58712 -0.46499
-1.40592 -0.58675 -0.46558
-1.40638 -0.58565 -0.46559
-1.40684 -0.58454 -0.46559
-1.40729 -0.58343 -0.46559
-1.40775 -0.58233 -0.46559
-1.40732 -0.58085 -0.46531
-1.40866 -0.58011 -0.46560
-1.41177 -0.58009 -0.46648
-1.41046 -0.57826 -0.46590
-1.41175 -0.57749 -0.46636
-1.41574 -0.57782 -0.46753
-1.41620 -0.57671 -0.46754
-1.41222 -0.57380 -0.46608
-1.41169 -0.57229 -0.46612
-1.41298 -0.57152 -0.46658
-1.41352 -0.57044 -0.46625
-1.41308 -0.56897 -0.46596
-1.41353 -0.56786 -0.46597
-1.41486 -0.56710 -0.46626
-1.41446 -0.56566 -0.46581
-1.41402 -0.56419 -0.46552
-1.41357 -0.56272 -0.46523
-1.41579 -0.56232 -0.46581
-1.41445 -0.56050 -0.46523
-1.41756 -0.56044 -0.46611
-1.41711 -0.55897 -0.46582
-1.41577 -0.55716 -0.46524
-1.41799 -0.55674 -0.46583
-1.41931 -0.55597 -0.46613
-1.41797 -0.55416 -0.46554
-1.41484 -0.55166 -0.46438
-1.41710 -0.55126 -0.46480
-1.42199 -0.55187 -0.46626
-1.42501 -0.55175 -0.46748
-1.42455 -0.55028 -0.46719
-1.42141 -0.54779 -0.46602
-1.41916 -0.54564 -0.46515
-1.41959 -0.54452 -0.46515
-1.42265 -0.54441 -0.46620
-1.42312 -0.54331 -0.46603
-1.42355 -0.54219 -0.46604
-1.42571 -0.54173 -0.46679
-1.42703 -0.54095 -0.46709
-1.42746 -0.53983 -0.46709
-1.42877 -0.53904 -0.46738
-1.43009 -0.53826 -0.46768
-1.42872 -0.53646 -0.46710
-1.42467 -0.53366 -0.46564
-1.42777 -0.53354 -0.46652
-1.42913 -0.53277 -0.46665
-1.42960 -0.53166 -0.46648
-1.43091 -0.53087 -0.46678
-1.43223 -0.53007 -0.46708
-1.42906 -0.52761 -0.46591
-1.42588 -0.52516 -0.46474
-1.42719 -0.52437 -0.46504
-1.43389 -0.52555 -0.46709
-1.43700 -0.52540 -0.46797
-1.43472 -0.52328 -0.46709
-1.43428 -0.52184 -0.46664
-1.43284 -0.52004 -0.46622
-1.43235 -0.51858 -0.46593
-1.43456 -0.51810 -0.46652
-1.43672 -0.51760 -0.46728
-1.43532 -0.51582 -0.46669
-1.43393 -0.51404 -0.46611
-1.43703 -0.51387 -0.46699
-1.43829 -0.51304 -0.46746
-1.43599 -0.51095 -0.46658
-1.43820 -0.51045 -0.46717
-1.43589 -0.50836 -0.46629
-1.43364 -0.50629 -0.46525
-1.43759 -0.50641 -0.46659
-1.44070 -0.50623 -0.46747
-1.44110 -0.50509 -0.46748
-1.43879 -0.50301 -0.46660
-1.43918 -0.50187 -0.46660
-1.44233 -0.50170 -0.46732
-1.44363 -0.50087 -0.46762
-1.44402 -0.49973 -0.46762
-1.44442 -0.49859 -0.46762
-1.44481 -0.49745 -0.46762
-1.44430 -0.49600 -0.46733
-1.44378 -0.49455 -0.46704
-1.44331 -0.49312 -0.46659
-1.44456 -0.49227 -0.46705
-1.44580 -0.49142 -0.46751
-1.44800 -0.49090 -0.46810
-1.45020 -0.49037 -0.46869
-1.44791 -0.48832 -0.46765
-1.44372 -0.48564 -0.46635
-1.44501 -0.48480 -0.46665
-1.44806 -0.48456 -0.46770
-1.44849 -0.48343 -0.46753
-1.45159 -0.48319 -0.46842
-1.45015 -0.48144 -0.46783
-1.44685 -0.47908 -0.46683
-1.44632 -0.47764 -0.46654
-1.45124 -0.47799 -0.46801
-1.45887 -0.45765 -0.46802
-1.45467 -0.45507 -0.46656
-1.45685 -0.45449 -0.46715
-1.47847 -0.36193 -0.46646
-1.47504 -0.35985 -0.46529
-1.17672 -0.97224 -0.46615
-1.19037 -0.95094 -0.46517
-1.19116 -0.95003 -0.46501
-1.21462 -0.92279 -0.46602
-1.21458 -0.92126 -0.46573
-1.21607 -0.92088 -0.46602
-1.21675 -0.91990 -0.46619
-1.21751 -0.91897 -0.46603
-1.21976 -0.91917 -0.46662
-1.22044 -0.91818 -0.46678
-1.21883 -0.91546 -0.46608
-1.21729 -0.91282 -0.46504
-1.21724 -0.91129 -0.46475
-1.22025 -0.91205 -0.46563
-1.22173 -0.91166 -0.46592
-1.22398 -0.91184 -0.46651
-1.22474 -0.91091 -0.46635
-1.22622 -0.91052 -0.46664
-1.22616 -0.90898 -0.46635
-1.22380 -0.90575 -0.46519
-1.24265 -0.89122 -0.46729
-1.25168 -0.86666 -0.46548
-1.25574 -0.85055 -0.46376
-1.25878 -0.85117 -0.46464
-1.26263 -0.85232 -0.46581
-1.26092 -0.84972 -0.46494
-1.26380 -0.84732 -0.46491
-1.26606 -0.84738 -0.46550
-1.26673 -0.84639 -0.46550
-1.26739 -0.84539 -0.46550
-1.26885 -0.84491 -0.46580
-1.27730 -0.82317 -0.46456
-1.28201 -0.82478 -0.46586
-1.28507 -0.82532 -0.46674
-1.29846 -0.79116 -0.46495
-1.34715 -0.69638 -0.46438
-1.34939 -0.69620 -0.46497
-1.35074 -0.69555 -0.46543
-1.34793 -0.69276 -0.46409
-1.35103 -0.69301 -0.46498
-1.35323 -0.69280 -0.46573
-1.35462 -0.69217 -0.46603
-1.35597 -0.69152 -0.46649
-1.35656 -0.69047 -0.46633
-1.35625 -0.68898 -0.46604
-1.35593 -0.68748 -0.46575
-1.35562 -0.68598 -0.46546
-1.35616 -0.68491 -0.46546
-1.35755 -0.68428 -0.46575
-1.35727 -0.68280 -0.46530
-1.35525 -0.68045 -0.46442
-1.35578 -0.67939 -0.46443
-1.35721 -0.67877 -0.46456
-1.35774 -0.67770 -0.46456
-1.35742 -0.67621 -0.46427
-1.35709 -0.67472 -0.46398
-1.35505 -0.67238 -0.46311
-1.35387 -0.67046 -0.46252
-1.35782 -0.67109 -0.46370
-1.36092 -0.67129 -0.46458
-1.35887 -0.66896 -0.46370
-1.35768 -0.66705 -0.46312
-1.35992 -0.66682 -0.46371
-1.36388 -0.66743 -0.46488
-1.36693 -0.66760 -0.46593
-1.36745 -0.66653 -0.46593
-1.36454 -0.66378 -0.46477
-1.36420 -0.66229 -0.46448
-1.36553 -0.66161 -0.46494
-1.36782 -0.66139 -0.46536
-1.36829 -0.66029 -0.46553
-1.36795 -0.65880 -0.46524
-1.36760 -0.65731 -0.46495
-1.36725 -0.65583 -0.46466
-1.36777 -0.65475 -0.46466
-1.36919 -0.65411 -0.46479
-1.37143 -0.65386 -0.46538
-1.37194 -0.65278 -0.46538
-1.36986 -0.65047 -0.46451
-1.37037 -0.64939 -0.46451
-1.37261 -0.64914 -0.46510
-1.37489 -0.64889 -0.46552
-1.37362 -0.64698 -0.46511
-1.37326 -0.64549 -0.46482
-1.37377 -0.64441 -0.46482
-1.37341 -0.64293 -0.46453
-1.37565 -0.64266 -0.46512
-1.37962 -0.64319 -0.46629
-1.38012 -0.64211 -0.46630
-1.37889 -0.64022 -0.46571
-1.37939 -0.63913 -0.46572
-1.37642 -0.63644 -0.46455
-1.37427 -0.63414 -0.46384
-1.37911 -0.63506 -0.46531
-1.38134 -0.63477 -0.46590
-1.38092 -0.63327 -0.46577
-1.38060 -0.63181 -0.46531
-1.38105 -0.63070 -0.46548
-1.37985 -0.62884 -0.46474
-1.38029 -0.62774 -0.46490
-1.38253 -0.62744 -0.46549
-1.38219 -0.62598 -0.46504
-1.38181 -0.62450 -0.46475
-1.38230 -0.62342 -0.46475
-1.38541 -0.62350 -0.46563
-1.38677 -0.62281 -0.46593
-1.38638 -0.62132 -0.46564
-1.38604 -0.61986 -0.46518
-1.38740 -0.61916 -0.46548
-1.38881 -0.61848 -0.46561
-1.38750 -0.61659 -0.46519
-1.38628 -0.61474 -0.46444
-1.38764 -0.61404 -0.46474
-1.39074 -0.61411 -0.46562
-1.39035 -0.61263 -0.46533
-1.38821 -0.61038 -0.46446
-1.38864 -0.60927 -0.46462
-1.39087 -0.60894 -0.46521
-1.39135 -0.60784 -0.46522
-1.39445 -0.60790 -0.46610
-1.39488 -0.60678 -0.46627
-1.39360 -0.60492 -0.46568
-1.39320 -0.60344 -0.46539
-1.39543 -0.60311 -0.46598
-1.39415 -0.60125 -0.46540
-1.39018 -0.59824 -0.46410
-1.39153 -0.59753 -0.46440
-1.39644 -0.59833 -0.46570
-1.40038 -0.59872 -0.46704
-1.40001 -0.59726 -0.46659
-1.39872 -0.59541 -0.46600
-1.39743 -0.59356 -0.46542
-1.39701 -0.59209 -0.46513
-1.39929 -0.59176 -0.46555
-1.40147 -0.59138 -0.46631
-1.40110 -0.58993 -0.46585
-1.40068 -0.58845 -0.46556
-1.40114 -0.58735 -0.46557
-1.40160 -0.58625 -0.46557
-1.40118 -0.58478 -0.46528
-1.40247 -0.58402 -0.46574
-1.39763 -0.58072 -0.46399
-1.39809 -0.57962 -0.46399
-1.40124 -0.57963 -0.46471
-1.40518 -0.57997 -0.46605
-1.40564 -0.57886 -0.46605
-1.40251 -0.57629 -0.46504
-1.40296 -0.57518 -0.46505
-1.40606 -0.57516 -0.46593
-1.40922 -0.57516 -0.46665
-1.40874 -0.57367 -0.46652
-1.40914 -0.57254 -0.46669
-1.41136 -0.57215 -0.46728
-1.41181 -0.57104 -0.46729
-1.41137 -0.56957 -0.46699
-1.40920 -0.56741 -0.46595
-1.40699 -0.56523 -0.46508
-1.40920 -0.56484 -0.46566
-1.41413 -0.56552 -0.46697
-1.41458 -0.56441 -0.46697
-1.41147 -0.56188 -0.46580
-1.41102 -0.56042 -0.46551
-1.41324 -0.56001 -0.46610
-1.41372 -0.55892 -0.46594
-1.41238 -0.55711 -0.46536
-1.41282 -0.55600 -0.46536
-1.41681 -0.55628 -0.46653
-1.41547 -0.55447 -0.46595
-1.41590 -0.55336 -0.46595
-1.41723 -0.55259 -0.46625
-1.41766 -0.55147 -0.46625
-1.41720 -0.55001 -0.46596
-1.41585 -0.54821 -0.46538
-1.41713 -0.54742 -0.46584
-1.42112 -0.54768 -0.46702
-1.42151 -0.54654 -0.46719
-1.42198 -0.54544 -0.46702
-1.42236 -0.54430 -0.46719
-1.42190 -0.54284 -0.46690
-1.41964 -0.54070 -0.46603
-1.42006 -0.53959 -0.46603
-1.42406 -0.53982 -0.46720
-1.42449 -0.53870 -0.46721
-1.42223 -0.53657 -0.46633
-1.41996 -0.53444 -0.46545
-1.42038 -0.53333 -0.46546
-1.42443 -0.53357 -0.46647
-1.42749 -0.53343 -0.46752
-1.42706 -0.53199 -0.46706
-1.42299 -0.52920 -0.46560
-1.42699 -0.52941 -0.46677
-1.42651 -0.52795 -0.46648
-1.42513 -0.52617 -0.46590
-1.42645 -0.52537 -0.46620
-1.42955 -0.52524 -0.46708
-1.43270 -0.52511 -0.46779
-1.43132 -0.52332 -0.46721
-1.42719 -0.52054 -0.46591
-1.42666 -0.51907 -0.46579
-1.42976 -0.51892 -0.46667
-1.43197 -0.51844 -0.46726
-1.43238 -0.51731 -0.46726
-1.43278 -0.51618 -0.46727
-1.43044 -0.51406 -0.46656
-1.42995 -0.51261 -0.46627
-1.43310 -0.51247 -0.46698
-1.43615 -0.51228 -0.46803
-1.43476 -0.51051 -0.46745
-1.43065 -0.50778 -0.46598
-1.43015 -0.50633 -0.46570
-1.43325 -0.50616 -0.46658
-1.43545 -0.50566 -0.46717
-1.43675 -0.50484 -0.46747
-1.43630 -0.50341 -0.46701
-1.43579 -0.50196 -0.46672
-1.43618 -0.50083 -0.46672
-1.43838 -0.50032 -0.46731
-1.44929 -0.47989 -0.46871
-1.44608 -0.47756 -0.46737
-1.46976 -0.37581 -0.46598
-1.47474 -0.37584 -0.46728
-1.47080 -0.36005 -0.46494
-1.47475 -0.35978 -0.46628
-1.18931 -0.95162 -0.46650
-1.18852 -0.94946 -0.46608
-1.18777 -0.94733 -0.46550
-1.20028 -0.92836 -0.46480
-1.19954 -0.92628 -0.46405
-1.20178 -0.92650 -0.46464
-1.20893 -0.91697 -0.46500
-1.21193 -0.91775 -0.46589
-1.21414 -0.91792 -0.46664
-1.21414 -0.91642 -0.46619
-1.21333 -0.91432 -0.46560
-1.21252 -0.91221 -0.46502
-1.21247 -0.91069 -0.46473
-1.21394 -0.91031 -0.46503
-1.21542 -0.90993 -0.46532
-1.21690 -0.90954 -0.46562
-1.21838 -0.90916 -0.46591
-1.21986 -0.90877 -0.46621
-1.21908 -0.90670 -0.46546
-1.21749 -0.90404 -0.46459
-1.21743 -0.90251 -0.46430
-1.21890 -0.90212 -0.46459
-1.22115 -0.90230 -0.46518
-1.25671 -0.85701 -0.46637
-1.25659 -0.85548 -0.46608
-1.25410 -0.85234 -0.46491
-1.25240 -0.84974 -0.46403
-1.25465 -0.84982 -0.46462
-1.25853 -0.85100 -0.46563
-1.25995 -0.85051 -0.46609
-1.25745 -0.84738 -0.46493
-1.25574 -0.84479 -0.46405
-1.25720 -0.84433 -0.46435
-1.26025 -0.84493 -0.46523
-1.26250 -0.84500 -0.46582
-1.26392 -0.84451 -0.46628
-1.26379 -0.84298 -0.46599
-1.26286 -0.84092 -0.46541
-1.26197 -0.83890 -0.46466
-1.26179 -0.83734 -0.46453
-1.26405 -0.83740 -0.46512
-1.26626 -0.83743 -0.46588
-1.26453 -0.83485 -0.46500
-1.26123 -0.83125 -0.46337
-1.26185 -0.83023 -0.46354
-1.26734 -0.83241 -0.46514
-1.26799 -0.83141 -0.46514
-1.26545 -0.82831 -0.46397
-1.26526 -0.82676 -0.46384
-1.26995 -0.82840 -0.46515
-1.27381 -0.82949 -0.46632
-1.27366 -0.82796 -0.46603
-1.27111 -0.82487 -0.46486
-1.27095 -0.82335 -0.46457
-1.27405 -0.82393 -0.46529
-1.27631 -0.82396 -0.46588
-1.27539 -0.82195 -0.46513
-1.27519 -0.82039 -0.46501
-1.27427 -0.81838 -0.46426
-1.27492 -0.81738 -0.46426
-1.27637 -0.81688 -0.46456
-1.27701 -0.81588 -0.46456
-1.27519 -0.81330 -0.46385
-1.27426 -0.81129 -0.46310
-1.27728 -0.81180 -0.46415
-1.28115 -0.81284 -0.46532
-1.28098 -0.81132 -0.46503
-1.27996 -0.80925 -0.46462
-1.28221 -0.80927 -0.46521
-1.28285 -0.80825 -0.46521
-1.28268 -0.80673 -0.46492
-1.28169 -0.80470 -0.46433
-1.28395 -0.80471 -0.46492
-1.28616 -0.80468 -0.46568
-1.28602 -0.80319 -0.46522
-1.28422 -0.80065 -0.46435
-1.28404 -0.79913 -0.46406
-1.28548 -0.79862 -0.46435
-1.28615 -0.79764 -0.46419
-1.28272 -0.79410 -0.46273
-1.28660 -0.79510 -0.46390
-1.28966 -0.79559 -0.46479
-1.29029 -0.79458 -0.46479
-1.29173 -0.79406 -0.46509
-1.29154 -0.79254 -0.46480
-1.28972 -0.79002 -0.46392
-1.28867 -0.78798 -0.46350
-1.29173 -0.78846 -0.46438
-1.29485 -0.78895 -0.46510
-1.29383 -0.78694 -0.46452
-1.29278 -0.78490 -0.46410
-1.29421 -0.78437 -0.46440
-1.29806 -0.78531 -0.46574
-1.29790 -0.78381 -0.46528
-1.29602 -0.78128 -0.46457
-1.29745 -0.78075 -0.46487
-1.29971 -0.78071 -0.46546
-1.29950 -0.77919 -0.46517
-1.29765 -0.77670 -0.46429
-1.29827 -0.77567 -0.46429
-1.30134 -0.77611 -0.46518
-1.30359 -0.77607 -0.46576
-1.30338 -0.77455 -0.46547
-1.30153 -0.77206 -0.46460
-1.30378 -0.77200 -0.46519
-1.30608 -0.77197 -0.46561
-1.30504 -0.76997 -0.46503
-1.30482 -0.76845 -0.46474
-1.30460 -0.76694 -0.46445
-1.30273 -0.76446 -0.46357
-1.30503 -0.76442 -0.46399
-1.30810 -0.76484 -0.46488
-1.30705 -0.76284 -0.46429
-1.30518 -0.76037 -0.46342
-1.30577 -0.75934 -0.46342
-1.30555 -0.75783 -0.46313
-1.30531 -0.75632 -0.46284
-1.30839 -0.75672 -0.46372
-1.31313 -0.75808 -0.46519
-1.31534 -0.75797 -0.46595
-1.31593 -0.75694 -0.46595
-1.31487 -0.75494 -0.46537
-1.31215 -0.75201 -0.46420
-1.31187 -0.75047 -0.46407
-1.31329 -0.74991 -0.46437
-1.31383 -0.74885 -0.46453
-1.31281 -0.74689 -0.46379
-1.31506 -0.74680 -0.46438
-1.31897 -0.74765 -0.46555
-1.31873 -0.74613 -0.46526
-1.31765 -0.74415 -0.46468
-1.31824 -0.74311 -0.46468
-1.32049 -0.74301 -0.46527
-1.32112 -0.74199 -0.46511
-1.32003 -0.74001 -0.46453
-1.32061 -0.73897 -0.46453
-1.32370 -0.73933 -0.46541
-1.32428 -0.73828 -0.46542
-1.32319 -0.73631 -0.46483
-1.32294 -0.73480 -0.46454
-1.32519 -0.73468 -0.46513
-1.32409 -0.73271 -0.46455
-1.32132 -0.72982 -0.46338
-1.32269 -0.72921 -0.46384
-1.32666 -0.73003 -0.46485
-1.32803 -0.72942 -0.46531
-1.32692 -0.72746 -0.46473
-1.32666 -0.72595 -0.46444
-1.32639 -0.72444 -0.46415
-1.32776 -0.72383 -0.46461
-1.32916 -0.72324 -0.46490
-1.32978 -0.72222 -0.46474
-1.33282 -0.72251 -0.46579
-1.33507 -0.72237 -0.46638
-1.33396 -0.72040 -0.46580
-1.33200 -0.71799 -0.46492
-1.33257 -0.71694 -0.46492
-1.33402 -0.71637 -0.46505
-1.33374 -0.71487 -0.46476
-1.33598 -0.71472 -0.46535
-1.33823 -0.71457 -0.46594
-1.33794 -0.71307 -0.46565
-1.33602 -0.71069 -0.46461
-1.33568 -0.70917 -0.46448
-1.33966 -0.70994 -0.46550
-1.34022 -0.70888 -0.46550
-1.33824 -0.70649 -0.46462
-1.33879 -0.70544 -0.46463
-1.34104 -0.70528 -0.46521
-1.34079 -0.70380 -0.46476
-1.34045 -0.70228 -0.46463
-1.34185 -0.70167 -0.46493
-1.34409 -0.70150 -0.46552
-1.34464 -0.70044 -0.46552
-1.34434 -0.69895 -0.46523
-1.34574 -0.69833 -0.46553
-1.34539 -0.69681 -0.46541
-1.34424 -0.69487 -0.46482
-1.34219 -0.69248 -0.46411
-1.34278 -0.69145 -0.46394
-1.34578 -0.69166 -0.46516
-1.34641 -0.69065 -0.46483
-1.34436 -0.68826 -0.46412
-1.34660 -0.68807 -0.46471
-1.35054 -0.68875 -0.46589
-1.35028 -0.68728 -0.46543
-1.34911 -0.68535 -0.46485
-1.34965 -0.68429 -0.46485
-1.35018 -0.68323 -0.46485
-1.35243 -0.68303 -0.46544
-1.35467 -0.68283 -0.46603
-1.35520 -0.68176 -0.46604
-1.35322 -0.67943 -0.46499
-1.35200 -0.67749 -0.46458
-1.35338 -0.67686 -0.46487
-1.35391 -0.67579 -0.46487
-1.35359 -0.67430 -0.46458
-1.35502 -0.67369 -0.46472
-1.35550 -0.67260 -0.46488
-1.35346 -0.67026 -0.46401
-1.35308 -0.66875 -0.46388
-1.35703 -0.66938 -0.46506
-1.35842 -0.66873 -0.46536
-1.35808 -0.66725 -0.46506
-1.35946 -0.66660 -0.46536
-1.36256 -0.66679 -0.46625
-1.36223 -0.66530 -0.46595
-1.36017 -0.66297 -0.46508
-1.35978 -0.66146 -0.46495
-1.36121 -0.66083 -0.46508
-1.36172 -0.65977 -0.46509
-1.36224 -0.65870 -0.46509
-1.35845 -0.65555 -0.46362
-1.36069 -0.65531 -0.46421
-1.36379 -0.65548 -0.46510
-1.36430 -0.65441 -0.46510
-1.36400 -0.65295 -0.46464
-1.36537 -0.65229 -0.46494
-1.36588 -0.65121 -0.46494
-1.36639 -0.65014 -0.46495
-1.36431 -0.64784 -0.46407
-1.36487 -0.64679 -0.46391
-1.36451 -0.64531 -0.46362
-1.36501 -0.64423 -0.46362
-1.36898 -0.64479 -0.46480
-1.37208 -0.64493 -0.46568
-1.36999 -0.64264 -0.46480
-1.36785 -0.64032 -0.46409
-1.37095 -0.64046 -0.46497
-1.37318 -0.64019 -0.46557
-1.36935 -0.63710 -0.46410
-1.36894 -0.63560 -0.46397
-1.37551 -0.63733 -0.46603
-1.37948 -0.63786 -0.46721
-1.37559 -0.63475 -0.46591
-1.37179 -0.63169 -0.46428
-1.37402 -0.63141 -0.46487
-1.37539 -0.63073 -0.46517
-1.37327 -0.62845 -0.46429
-1.37633 -0.62855 -0.46534
-1.37861 -0.62828 -0.46576
-1.38002 -0.62761 -0.46590
-1.38051 -0.62653 -0.46590
-1.37926 -0.62465 -0.46531
-1.37713 -0.62239 -0.46443
-1.37588 -0.62052 -0.46385
-1.37724 -0.61983 -0.46415
-1.38029 -0.61990 -0.46520
-1.38078 -0.61881 -0.46520
-1.38131 -0.61775 -0.46504
-1.38267 -0.61705 -0.46533
-1.38490 -0.61674 -0.46592
-1.38359 -0.61485 -0.46551
-1.38145 -0.61260 -0.46463
-1.38193 -0.61151 -0.46463
-1.38591 -0.61197 -0.46581
-1.38726 -0.61127 -0.46611
-1.38512 -0.60902 -0.46523
-1.38555 -0.60791 -0.46540
-1.38778 -0.60759 -0.46599
-1.38913 -0.60688 -0.46628
-1.38698 -0.60464 -0.46540
-1.38482 -0.60240 -0.46453
-1.38792 -0.60245 -0.46541
-1.39190 -0.60288 -0.46659
-1.39238 -0.60179 -0.46659
-1.39285 -0.60069 -0.46659
-1.39156 -0.59884 -0.46601
-1.39203 -0.59774 -0.46601
-1.39343 -0.59705 -0.46614
-1.39478 -0.59632 -0.46644
-1.39436 -0.59485 -0.46615
-1.39219 -0.59263 -0.46527
-1.39270 -0.59156 -0.46511
-1.39317 -0.59046 -0.46511
-1.39363 -0.58936 -0.46512
-1.39409 -0.58827 -0.46512
-1.39544 -0.58754 -0.46542
-1.39766 -0.58718 -0.46601
-1.39724 -0.58571 -0.46572
-1.39593 -0.58388 -0.46513
-1.39639 -0.58278 -0.46513
-1.39685 -0.58168 -0.46514
-1.39730 -0.58058 -0.46514
-1.39776 -0.57948 -0.46514
-1.39905 -0.57873 -0.46560
-1.39950 -0.57763 -0.46561
-1.39907 -0.57616 -0.46532
-1.39948 -0.57504 -0.46548
-1.40170 -0.57466 -0.46608
-1.40480 -0.57465 -0.46696
-1.40614 -0.57390 -0.46726
-1.40393 -0.57172 -0.46638
-1.40350 -0.57025 -0.46609
-1.40749 -0.57058 -0.46727
-1.40793 -0.56948 -0.46727
-1.40577 -0.56731 -0.46623
-1.40621 -0.56621 -0.46623
-1.40754 -0.56546 -0.46653
-1.40710 -0.56399 -0.46624
-1.40754 -0.56289 -0.46624
-1.40887 -0.56213 -0.46654
-1.40931 -0.56102 -0.46654
-1.40891 -0.55958 -0.46608
-1.40753 -0.55775 -0.46566
-1.40707 -0.55629 -0.46537
-1.40751 -0.55519 -0.46537
-1.41061 -0.55513 -0.46626
-1.41372 -0.55507 -0.46714
-1.41504 -0.55430 -0.46744
-1.41543 -0.55317 -0.46761
-1.41497 -0.55171 -0.46732
-1.41273 -0.54956 -0.46644
-1.41317 -0.54844 -0.46644
-1.41449 -0.54768 -0.46674
-1.41759 -0.54760 -0.46763
-1.42154 -0.54784 -0.46897
-1.42108 -0.54638 -0.46868
-1.41794 -0.54389 -0.46751
-1.41479 -0.54141 -0.46633
-1.41611 -0.54063 -0.46663
-1.42015 -0.54090 -0.46764
-1.42142 -0.54010 -0.46811
-1.42100 -0.53866 -0.46765
-1.41964 -0.53687 -0.46707
-1.42006 -0.53575 -0.46707
-1.42410 -0.53600 -0.46808
-1.42542 -0.53522 -0.46838
-1.42226 -0.53275 -0.46720
-1.41730 -0.52963 -0.46544
-1.41813 -0.52740 -0.46545
-1.42218 -0.52763 -0.46646
-1.42211 -0.52505 -0.46618
-1.42158 -0.52358 -0.46605
-1.42558 -0.52377 -0.46723
-1.43048 -0.52429 -0.46870
-1.42999 -0.52284 -0.46841
-1.43275 -0.50090 -0.46700
-1.43133 -0.49914 -0.46641
-1.43805 -0.50020 -0.46847
-1.45517 -0.42391 -0.46711
-1.45931 -0.39901 -0.46595
-1.46849 -0.37549 -0.46685
-1.46873 -0.35831 -0.46601
-1.18593 -0.94891 -0.46698
-1.19606 -0.92509 -0.46515
-1.19981 -0.92649 -0.46633
-1.20780 -0.91612 -0.46620
-1.20624 -0.91343 -0.46532
-1.20695 -0.91249 -0.46532
-1.20771 -0.91157 -0.46516
-1.20995 -0.91177 -0.46575
-1.20990 -0.91024 -0.46546
-1.20985 -0.90872 -0.46517
-1.20980 -0.90720 -0.46488
-1.21280 -0.90796 -0.46576
-1.21505 -0.90816 -0.46635
-1.21423 -0.90606 -0.46577
-1.21260 -0.90336 -0.46505
-1.21334 -0.90244 -0.46489
-1.21478 -0.90202 -0.46536
-1.21395 -0.89993 -0.46477
-1.21385 -0.89838 -0.46464
-1.21609 -0.89856 -0.46524
-1.22200 -0.88080 -0.46335
-1.24697 -0.85181 -0.46462
-1.24611 -0.84978 -0.46387
-1.24752 -0.84930 -0.46434
-1.24898 -0.84886 -0.46463
-1.24965 -0.84787 -0.46464
-1.24874 -0.84581 -0.46405
-1.25019 -0.84536 -0.46435
-1.25240 -0.84542 -0.46510
-1.25382 -0.84493 -0.46557
-1.25373 -0.84344 -0.46511
-1.25515 -0.84295 -0.46557
-1.25665 -0.84252 -0.46570
-1.25731 -0.84153 -0.46571
-1.25873 -0.84104 -0.46617
-1.26018 -0.84058 -0.46647
-1.25930 -0.83855 -0.46572
-1.25916 -0.83703 -0.46542
-1.26062 -0.83656 -0.46572
-1.26128 -0.83557 -0.46573
-1.26118 -0.83407 -0.46527
-1.26104 -0.83255 -0.46498
-1.26090 -0.83103 -0.46469
-1.26151 -0.83000 -0.46486
-1.26220 -0.82904 -0.46469
-1.26286 -0.82804 -0.46470
-1.26351 -0.82704 -0.46470
-1.26412 -0.82602 -0.46487
-1.26477 -0.82502 -0.46487
-1.26622 -0.82454 -0.46517
-1.26607 -0.82302 -0.46488
-1.26351 -0.81994 -0.46370
-1.26491 -0.81944 -0.46416
-1.26801 -0.82002 -0.46488
-1.26861 -0.81899 -0.46505
-1.26926 -0.81799 -0.46506
-1.26990 -0.81699 -0.46506
-1.27054 -0.81599 -0.46506
-1.27360 -0.81653 -0.46595
-1.27420 -0.81550 -0.46612
-1.27243 -0.81295 -0.46524
-1.27146 -0.81092 -0.46465
-1.27375 -0.81097 -0.46508
-1.27681 -0.81150 -0.46596
-1.27503 -0.80895 -0.46508
-1.27409 -0.80695 -0.46433
-1.27553 -0.80646 -0.46463
-1.27855 -0.80695 -0.46568
-1.28004 -0.80648 -0.46581
-1.27824 -0.80394 -0.46493
-1.27888 -0.80293 -0.46494
-1.27955 -0.80195 -0.46477
-1.28014 -0.80092 -0.46494
-1.28000 -0.79943 -0.46449
-1.28063 -0.79841 -0.46449
-1.28126 -0.79740 -0.46449
-1.28104 -0.79586 -0.46437
-1.28171 -0.79488 -0.46420
-1.28391 -0.79485 -0.46496
-1.28698 -0.79534 -0.46585
-1.28679 -0.79382 -0.46555
-1.28416 -0.79080 -0.46438
-1.28315 -0.78879 -0.46380
-1.28699 -0.78975 -0.46514
-1.28598 -0.78773 -0.46455
-1.28497 -0.78572 -0.46397
-1.28649 -0.78526 -0.46394
-1.28874 -0.78524 -0.46453
-1.29009 -0.78466 -0.46515
-1.29153 -0.78414 -0.46545
-1.28969 -0.78163 -0.46457
-1.28622 -0.77814 -0.46310
-1.28847 -0.77812 -0.46370
-1.29317 -0.77956 -0.46517
-1.29379 -0.77854 -0.46517
-1.29440 -0.77752 -0.46518
-1.29423 -0.77604 -0.46472
-1.29398 -0.77450 -0.46459
-1.29377 -0.77299 -0.46430
-1.29524 -0.77248 -0.46443
-1.29749 -0.77244 -0.46503
-1.29810 -0.77141 -0.46503
-1.29871 -0.77039 -0.46503
-1.30096 -0.77034 -0.46563
-1.29992 -0.76834 -0.46504
-1.29723 -0.76537 -0.46387
-1.29944 -0.76529 -0.46462
-1.30251 -0.76572 -0.46551
-1.30229 -0.76420 -0.46522
-1.30207 -0.76269 -0.46492
-1.30432 -0.76263 -0.46552
-1.30405 -0.76109 -0.46539
-1.30465 -0.76006 -0.46539
-1.30773 -0.76047 -0.46628
-1.30828 -0.75942 -0.46645
-1.30562 -0.75649 -0.46511
-1.30373 -0.75403 -0.46423
-1.30598 -0.75395 -0.46482
-1.30740 -0.75340 -0.46512
-1.30717 -0.75189 -0.46482
-1.30859 -0.75133 -0.46512
-1.31005 -0.75080 -0.46525
-1.30815 -0.74835 -0.46437
-1.30791 -0.74684 -0.46408
-1.31182 -0.74770 -0.46526
-1.31573 -0.74855 -0.46644
-1.31387 -0.74613 -0.46540
-1.31030 -0.74273 -0.46393
-1.31006 -0.74123 -0.46364
-1.31147 -0.74066 -0.46394
-1.31205 -0.73963 -0.46394
-1.31430 -0.73953 -0.46453
-1.31655 -0.73943 -0.46512
-1.31630 -0.73792 -0.46483
-1.31438 -0.73548 -0.46395
-1.31829 -0.73631 -0.46513
-1.31883 -0.73524 -0.46530
-1.31686 -0.73278 -0.46458
-1.31827 -0.73221 -0.46488
-1.32052 -0.73209 -0.46547
-1.32193 -0.73152 -0.46577
-1.32163 -0.72998 -0.46564
-1.32057 -0.72804 -0.46489
-1.32198 -0.72746 -0.46519
-1.32339 -0.72688 -0.46549
-1.32313 -0.72537 -0.46520
-1.32370 -0.72433 -0.46520
-1.32511 -0.72374 -0.46550
-1.32484 -0.72224 -0.46521
-1.32293 -0.71985 -0.46416
-1.32434 -0.71926 -0.46446
-1.32658 -0.71913 -0.46505
-1.32631 -0.71762 -0.46476
-1.32519 -0.71567 -0.46417
-1.32744 -0.71553 -0.46476
-1.32969 -0.71539 -0.46536
-1.33109 -0.71479 -0.46565
-1.33249 -0.71420 -0.46595
-1.33221 -0.71270 -0.46566
-1.33108 -0.71075 -0.46508
-1.33244 -0.71013 -0.46554
-1.33468 -0.70998 -0.46613
-1.33270 -0.70759 -0.46525
-1.33073 -0.70520 -0.46437
-1.33297 -0.70505 -0.46496
-1.33521 -0.70489 -0.46555
-1.33661 -0.70429 -0.46585
-1.33627 -0.70277 -0.46572
-1.33513 -0.70083 -0.46514
-1.33483 -0.69934 -0.46485
-1.33707 -0.69917 -0.46544
-1.33847 -0.69857 -0.46574
-1.33906 -0.69754 -0.46557
-1.33787 -0.69558 -0.46515
-1.33761 -0.69411 -0.46470
-1.33985 -0.69394 -0.46529
-1.34124 -0.69332 -0.46559
-1.34263 -0.69271 -0.46588
-1.34237 -0.69124 -0.46543
-1.34291 -0.69018 -0.46543
-1.34176 -0.68826 -0.46484
-1.34229 -0.68720 -0.46485
-1.34368 -0.68658 -0.46514
-1.34507 -0.68596 -0.46544
-1.34817 -0.68620 -0.46633
-1.34790 -0.68473 -0.46587
-1.34498 -0.68192 -0.46486
-1.34466 -0.68043 -0.46457
-1.34775 -0.68067 -0.46546
-1.34999 -0.68047 -0.46605
-1.35133 -0.67982 -0.46651
-1.34931 -0.67747 -0.46563
-1.34642 -0.67470 -0.46446
-1.34780 -0.67406 -0.46475
-1.35004 -0.67386 -0.46535
-1.34967 -0.67235 -0.46522
-1.34848 -0.67044 -0.46463
-1.34986 -0.66980 -0.46493
-1.35125 -0.66917 -0.46523
-1.35006 -0.66726 -0.46464
-1.34972 -0.66577 -0.46435
-1.35029 -0.66473 -0.46419
-1.35162 -0.66407 -0.46465
-1.35476 -0.66429 -0.46537
-1.35614 -0.66365 -0.46567
-1.35666 -0.66258 -0.46567
-1.35632 -0.66110 -0.46538
-1.35770 -0.66045 -0.46568
-1.35822 -0.65938 -0.46568
-1.35792 -0.65792 -0.46523
-1.35585 -0.65561 -0.46435
-1.35637 -0.65454 -0.46435
-1.36028 -0.65511 -0.46569
-1.36338 -0.65528 -0.46658
-1.36217 -0.65339 -0.46599
-1.36095 -0.65149 -0.46541
-1.36233 -0.65083 -0.46571
-1.36279 -0.64974 -0.46587
-1.36330 -0.64867 -0.46588
-1.36381 -0.64760 -0.46588
-1.36432 -0.64653 -0.46588
-1.36569 -0.64586 -0.46618
-1.36792 -0.64560 -0.46677
-1.36670 -0.64372 -0.46619
-1.36456 -0.64140 -0.46547
-1.36506 -0.64033 -0.46547
-1.36903 -0.64087 -0.46665
-1.37126 -0.64061 -0.46725
-1.37003 -0.63872 -0.46666
-1.36620 -0.63563 -0.46519
-1.36501 -0.63377 -0.46444
-1.36551 -0.63270 -0.46444
-1.36687 -0.63203 -0.46474
-1.36915 -0.63178 -0.46517
-1.37138 -0.63150 -0.46576
-1.37274 -0.63082 -0.46606
-1.37415 -0.63016 -0.46619
-1.37286 -0.62826 -0.46577
-1.37340 -0.62721 -0.46561
-1.37384 -0.62611 -0.46577
-1.37607 -0.62582 -0.46637
-1.37661 -0.62476 -0.46621
-1.37357 -0.62208 -0.46520
-1.37580 -0.62179 -0.46579
-1.37629 -0.62070 -0.46579
-1.37677 -0.61962 -0.46579
-1.37377 -0.61697 -0.46462
-1.37421 -0.61587 -0.46478
-1.37906 -0.61674 -0.46626
-1.38211 -0.61680 -0.46731
-1.38172 -0.61532 -0.46702
-1.37871 -0.61269 -0.46585
-1.37919 -0.61160 -0.46585
-1.38234 -0.61169 -0.46657
-1.38287 -0.61063 -0.46641
-1.38155 -0.60875 -0.46599
-1.38115 -0.60728 -0.46570
-1.38338 -0.60696 -0.46629
-1.38561 -0.60664 -0.46688
-1.38696 -0.60593 -0.46718
-1.38573 -0.60409 -0.46643
-1.38445 -0.60224 -0.46584
-1.38663 -0.60189 -0.46660
-1.38890 -0.60158 -0.46703
-1.38762 -0.59973 -0.46644
-1.38546 -0.59750 -0.46556
-1.38939 -0.59790 -0.46691
-1.38986 -0.59681 -0.46691
-1.39037 -0.59574 -0.46675
-1.39172 -0.59502 -0.46704
-1.39302 -0.59428 -0.46751
-1.39348 -0.59318 -0.46751
-1.39214 -0.59132 -0.46709
-1.38997 -0.58910 -0.46621
-1.38867 -0.58727 -0.46562
-1.39001 -0.58654 -0.46592
-1.39399 -0.58693 -0.46710
-1.39710 -0.58695 -0.46799
-1.39491 -0.58474 -0.46711
-1.39449 -0.58327 -0.46681
-1.39495 -0.58218 -0.46682
-1.39629 -0.58145 -0.46712
-1.39762 -0.58071 -0.46742
-1.39980 -0.58033 -0.46817
-1.40030 -0.57924 -0.46801
-1.40075 -0.57814 -0.46801
-1.40032 -0.57668 -0.46772
-1.39901 -0.57485 -0.46714
-1.39862 -0.57340 -0.46668
-1.40172 -0.57339 -0.46757
-1.40311 -0.57267 -0.46770
-1.40090 -0.57048 -0.46682
-1.44701 -0.42277 -0.46639
-1.44739 -0.42164 -0.46623
-1.44864 -0.42076 -0.46653
-1.14034 -0.98207 -0.46453
-1.14107 -0.98114 -0.46470
-1.15565 -0.96249 -0.46430
-1.15787 -0.96280 -0.46489
-1.17432 -0.94569 -0.46554
-1.17361 -0.94360 -0.46479
-1.19566 -0.92478 -0.46680
-1.20270 -0.91076 -0.46612
-1.20113 -0.90809 -0.46523
-1.20413 -0.90887 -0.46612
-1.20556 -0.90847 -0.46659
-1.20551 -0.90695 -0.46629
-1.20389 -0.90425 -0.46557
-1.20617 -0.90448 -0.46600
-1.20841 -0.90467 -0.46660
-1.20759 -0.90258 -0.46601
-1.20523 -0.89935 -0.46483
-1.20517 -0.89783 -0.46454
-1.20741 -0.89802 -0.46513
-1.21122 -0.89938 -0.46615
-1.21273 -0.89903 -0.46629
-1.21267 -0.89751 -0.46599
-1.21107 -0.89485 -0.46511
-1.21177 -0.89390 -0.46512
-1.22081 -0.88141 -0.46532
-1.21914 -0.87874 -0.46460
-1.21905 -0.87722 -0.46431
-1.23283 -0.85938 -0.46466
-1.23042 -0.85626 -0.46332
-1.23266 -0.85637 -0.46391
-1.24548 -0.84935 -0.46634
-1.24694 -0.84891 -0.46664
-1.24760 -0.84792 -0.46664
-1.24594 -0.84535 -0.46559
-1.24661 -0.84437 -0.46560
-1.24727 -0.84339 -0.46560
-1.24798 -0.84243 -0.46544
-1.24864 -0.84145 -0.46544
-1.25168 -0.84206 -0.46633
-1.25155 -0.84054 -0.46604
-1.24825 -0.83689 -0.46457
-1.25049 -0.83697 -0.46516
-1.25199 -0.83654 -0.46529
-1.25026 -0.83396 -0.46441
-1.25088 -0.83295 -0.46458
-1.25710 -0.83566 -0.46665
-1.25935 -0.83572 -0.46724
-1.25842 -0.83368 -0.46665
-1.25589 -0.83057 -0.46548
-1.25650 -0.82955 -0.46564
-1.25715 -0.82856 -0.46564
-1.25860 -0.82809 -0.46594
-1.26001 -0.82760 -0.46641
-1.26066 -0.82660 -0.46641
-1.26211 -0.82613 -0.46671
-1.26357 -0.82566 -0.46701
-1.26261 -0.82361 -0.46642
-1.26166 -0.82158 -0.46583
-1.26235 -0.82061 -0.46567
-1.26300 -0.81961 -0.46567
-1.26364 -0.81861 -0.46568
-1.26188 -0.81606 -0.46479
-1.26257 -0.81509 -0.46463
-1.26562 -0.81565 -0.46552
-1.26863 -0.81617 -0.46657
-1.26686 -0.81362 -0.46569
-1.26754 -0.81265 -0.46553
-1.27055 -0.81316 -0.46658
-1.27043 -0.81167 -0.46613
-1.26942 -0.80962 -0.46570
-1.27086 -0.80913 -0.46600
-1.27069 -0.80761 -0.46571
-1.26971 -0.80558 -0.46512
-1.26954 -0.80407 -0.46483
-1.27260 -0.80460 -0.46572
-1.27561 -0.80510 -0.46677
-1.27544 -0.80358 -0.46648
-1.27769 -0.80359 -0.46707
-1.27913 -0.80309 -0.46737
-1.27733 -0.80056 -0.46649
-1.27387 -0.79699 -0.46518
-1.27454 -0.79601 -0.46502
-1.27679 -0.79602 -0.46561
-1.27579 -0.79400 -0.46502
-1.27642 -0.79299 -0.46502
-1.27785 -0.79249 -0.46532
-1.28010 -0.79249 -0.46592
-1.27910 -0.79047 -0.46533
-1.27977 -0.78949 -0.46517
-1.28202 -0.78948 -0.46576
-1.28264 -0.78847 -0.46576
-1.28326 -0.78746 -0.46577
-1.28306 -0.78594 -0.46548
-1.28205 -0.78393 -0.46489
-1.28190 -0.78245 -0.46443
-1.28578 -0.78343 -0.46562
-1.28966 -0.78440 -0.46680
-1.29028 -0.78338 -0.46680
-1.28762 -0.78038 -0.46563
-1.28660 -0.77838 -0.46504
-1.28885 -0.77835 -0.46563
-1.29192 -0.77881 -0.46652
-1.29249 -0.77776 -0.46669
-1.29310 -0.77674 -0.46669
-1.29125 -0.77425 -0.46581
-1.28940 -0.77176 -0.46492
-1.29243 -0.77218 -0.46598
-1.29386 -0.77165 -0.46628
-1.29282 -0.76965 -0.46569
-1.29179 -0.76766 -0.46510
-1.29403 -0.76761 -0.46569
-1.29628 -0.76757 -0.46629
-1.29689 -0.76654 -0.46629
-1.29667 -0.76503 -0.46600
-1.29727 -0.76401 -0.46600
-1.29709 -0.76253 -0.46554
-1.29600 -0.76051 -0.46512
-1.29664 -0.75951 -0.46496
-1.29889 -0.75945 -0.46555
-1.29949 -0.75843 -0.46556
-1.29926 -0.75692 -0.46526
-1.29986 -0.75590 -0.46527
-1.30128 -0.75535 -0.46557
-1.30187 -0.75432 -0.46557
-1.30081 -0.75234 -0.46498
-1.30306 -0.75227 -0.46558
-1.30696 -0.75315 -0.46676
-1.30838 -0.75259 -0.46706
-1.30566 -0.74966 -0.46588
-1.30376 -0.74720 -0.46500
-1.30514 -0.74662 -0.46546
-1.30821 -0.74701 -0.46635
-1.30876 -0.74595 -0.46652
-1.30851 -0.74445 -0.46622
-1.30910 -0.74342 -0.46623
-1.30969 -0.74238 -0.46623
-1.31110 -0.74182 -0.46653
-1.31252 -0.74125 -0.46683
-1.30977 -0.73834 -0.46565
-1.30952 -0.73684 -0.46535
-1.31264 -0.73723 -0.46608
-1.31318 -0.73617 -0.46625
-1.31376 -0.73513 -0.46625
-1.31438 -0.73412 -0.46609
-1.31496 -0.73309 -0.46609
-1.31303 -0.73065 -0.46521
-1.31282 -0.72918 -0.46475
-1.31423 -0.72861 -0.46505
-1.31480 -0.72757 -0.46505
-1.31370 -0.72561 -0.46446
-1.31427 -0.72457 -0.46447
-1.31652 -0.72445 -0.46506
-1.31876 -0.72433 -0.46566
-1.31770 -0.72240 -0.46490
-1.31827 -0.72136 -0.46491
-1.32047 -0.72121 -0.46566
-1.32187 -0.72062 -0.46596
-1.31992 -0.71821 -0.46508
-1.31797 -0.71580 -0.46420
-1.32097 -0.71608 -0.46541
-1.32489 -0.71686 -0.46660
-1.32461 -0.71536 -0.46631
-1.32265 -0.71295 -0.46542
-1.32574 -0.71326 -0.46631
-1.32630 -0.71222 -0.46632
-1.32433 -0.70983 -0.46543
-1.32657 -0.70969 -0.46603
-1.32966 -0.70999 -0.46692
-1.32857 -0.70807 -0.46616
-1.32575 -0.70523 -0.46498
-1.32630 -0.70419 -0.46499
-1.33023 -0.70494 -0.46617
-1.33079 -0.70389 -0.46618
-1.32800 -0.70109 -0.46483
-1.32855 -0.70004 -0.46483
-1.33159 -0.70031 -0.46589
-1.33299 -0.69971 -0.46619
-1.33269 -0.69822 -0.46590
-1.33324 -0.69717 -0.46590
-1.33298 -0.69570 -0.46544
-1.33263 -0.69419 -0.46531
-1.33318 -0.69314 -0.46532
-1.33372 -0.69209 -0.46532
-1.33596 -0.69193 -0.46591
-1.33735 -0.69131 -0.46621
-1.33789 -0.69026 -0.46621
-1.33839 -0.68919 -0.46638
-1.33893 -0.68814 -0.46638
-1.33947 -0.68708 -0.46639
-1.33826 -0.68514 -0.46596
-1.34050 -0.68495 -0.46656
-1.34104 -0.68390 -0.46656
-1.34072 -0.68241 -0.46627
-1.34211 -0.68179 -0.46657
-1.34183 -0.68033 -0.46611
-1.34062 -0.67839 -0.46569
-1.34030 -0.67690 -0.46539
-1.34173 -0.67630 -0.46553
-1.34311 -0.67568 -0.46583
-1.34368 -0.67465 -0.46567
-1.34592 -0.67444 -0.46626
-1.34645 -0.67339 -0.46626
-1.34441 -0.67105 -0.46538
-1.34323 -0.66914 -0.46479
-1.34551 -0.66896 -0.46522
-1.34774 -0.66875 -0.46581
-1.34822 -0.66767 -0.46598
-1.34960 -0.66703 -0.46628
-1.35274 -0.66726 -0.46701
-1.35412 -0.66662 -0.46731
-1.35379 -0.66513 -0.46701
-1.35340 -0.66363 -0.46688
-1.35216 -0.66170 -0.46646
-1.35011 -0.65938 -0.46558
-1.35148 -0.65874 -0.46587
-1.35371 -0.65851 -0.46647
-1.34993 -0.65536 -0.46499
-1.35040 -0.65428 -0.46516
-1.35521 -0.65530 -0.46664
-1.35573 -0.65423 -0.46665
-1.35629 -0.65319 -0.46648
-1.35766 -0.65254 -0.46678
-1.35731 -0.65106 -0.46649
-1.35523 -0.64875 -0.46561
-1.35574 -0.64769 -0.46561
-1.35884 -0.64785 -0.46650
-1.36021 -0.64720 -0.46680
-1.35726 -0.64449 -0.46562
-1.35777 -0.64342 -0.46562
-1.36091 -0.64360 -0.46635
-1.36314 -0.64335 -0.46694
-1.36192 -0.64146 -0.46635
-1.36415 -0.64121 -0.46695
-1.36551 -0.64054 -0.46725
-1.36169 -0.63744 -0.46577
-1.36128 -0.63594 -0.46564
-1.36611 -0.63689 -0.46713
-1.36834 -0.63662 -0.46772
-1.36710 -0.63475 -0.46713
-1.36587 -0.63287 -0.46654
-1.36978 -0.63338 -0.46789
-1.37115 -0.63270 -0.46819
-1.36991 -0.63082 -0.46760
-1.36433 -0.62696 -0.46553
-1.36395 -0.62548 -0.46524
-1.36791 -0.62600 -0.46643
-1.37188 -0.62651 -0.46762
-1.37150 -0.62504 -0.46732
-1.37025 -0.62317 -0.46673
-1.41391 -0.49056 -0.46442
-1.42541 -0.46824 -0.46583
-1.42578 -0.46712 -0.46584
-1.43382 -0.44482 -0.46636
-1.43143 -0.44284 -0.46547
-1.44873 -0.42203 -0.46847
-1.44906 -0.42089 -0.46847
-1.15087 -0.96005 -0.46429
-1.15309 -0.96036 -0.46489
-1.15535 -0.96071 -0.46532
-1.17021 -0.94389 -0.46600
-1.16723 -0.93998 -0.46452
-1.16945 -0.94026 -0.46512
-1.19700 -0.90496 -0.46507
-1.19771 -0.90402 -0.46507
-1.19994 -0.90423 -0.46566
-1.19989 -0.90271 -0.46537
-1.19826 -0.90002 -0.46465
-1.19820 -0.89850 -0.46436
-1.19967 -0.89813 -0.46466
-1.20191 -0.89833 -0.46525
-1.20410 -0.89850 -0.46601
-1.20408 -0.89702 -0.46555
-1.20398 -0.89547 -0.46542
-1.20544 -0.89509 -0.46572
-1.20691 -0.89471 -0.46602
-1.20608 -0.89263 -0.46543
-1.20447 -0.88998 -0.46455
-1.20594 -0.88960 -0.46485
-1.22040 -0.87965 -0.46634
-1.22113 -0.87871 -0.46618
-1.23871 -0.86203 -0.46788
-1.23625 -0.85887 -0.46670
-1.23614 -0.85735 -0.46641
-1.24660 -0.84868 -0.46795
-1.24490 -0.84608 -0.46707
-1.24319 -0.84349 -0.46618
-1.24465 -0.84304 -0.46648
-1.24848 -0.84420 -0.46767
-1.24752 -0.84212 -0.46724
-1.24505 -0.83903 -0.46590
-1.24571 -0.83804 -0.46590
-1.24717 -0.83759 -0.46620
-1.24783 -0.83661 -0.46620
-1.24928 -0.83615 -0.46650
-1.25391 -0.83782 -0.46799
-1.25461 -0.83686 -0.46782
-1.25209 -0.83375 -0.46664
-1.25116 -0.83171 -0.46605
-1.25420 -0.83230 -0.46694
-1.25485 -0.83131 -0.46695
-1.25471 -0.82979 -0.46665
-1.25541 -0.82883 -0.46649
-1.25606 -0.82784 -0.46650
-1.25671 -0.82685 -0.46650
-1.25577 -0.82481 -0.46591
-1.25801 -0.82486 -0.46651
-1.25942 -0.82437 -0.46697
-1.25691 -0.82131 -0.46562
-1.25356 -0.81771 -0.46415
-1.25736 -0.81878 -0.46550
-1.26361 -0.82143 -0.46757
-1.26342 -0.81988 -0.46744
-1.26085 -0.81681 -0.46626
-1.25909 -0.81426 -0.46538
-1.26054 -0.81378 -0.46568
-1.26194 -0.81327 -0.46614
-1.26338 -0.81280 -0.46644
-1.26487 -0.81234 -0.46657
-1.26466 -0.81080 -0.46644
-1.26534 -0.80983 -0.46628
-1.26759 -0.80986 -0.46688
-1.27064 -0.81040 -0.46777
-1.27128 -0.80939 -0.46777
-1.26793 -0.80586 -0.46613
-1.26610 -0.80329 -0.46541
-1.26758 -0.80283 -0.46554
-1.26983 -0.80285 -0.46614
-1.27046 -0.80185 -0.46614
-1.27109 -0.80085 -0.46615
-1.27011 -0.79883 -0.46556
-1.26912 -0.79681 -0.46497
-1.27460 -0.79885 -0.46675
-1.27280 -0.79632 -0.46586
-1.27100 -0.79380 -0.46498
-1.27158 -0.79277 -0.46514
-1.27464 -0.79328 -0.46603
-1.27607 -0.79278 -0.46633
-1.27507 -0.79077 -0.46575
-1.27407 -0.78875 -0.46515
-1.27465 -0.78772 -0.46532
-1.27608 -0.78722 -0.46562
-1.27752 -0.78671 -0.46592
-1.27895 -0.78620 -0.46622
-1.28038 -0.78569 -0.46652
-1.28100 -0.78468 -0.46652
-1.28080 -0.78317 -0.46623
-1.28224 -0.78266 -0.46653
-1.28530 -0.78314 -0.46742
-1.28596 -0.78215 -0.46726
-1.28412 -0.77965 -0.46637
-1.28470 -0.77861 -0.46654
-1.28699 -0.77861 -0.46697
-1.28760 -0.77759 -0.46697
-1.28744 -0.77611 -0.46652
-1.28723 -0.77460 -0.46623
-1.28784 -0.77358 -0.46623
-1.28681 -0.77158 -0.46564
-1.28578 -0.76959 -0.46505
-1.29053 -0.77105 -0.46637
-1.29027 -0.76951 -0.46624
-1.28595 -0.76556 -0.46446
-1.28656 -0.76455 -0.46447
-1.29126 -0.76597 -0.46595
-1.29351 -0.76592 -0.46655
-1.29489 -0.76536 -0.46701
-1.29549 -0.76434 -0.46702
-1.29445 -0.76235 -0.46642
-1.29176 -0.75939 -0.46524
-1.29231 -0.75835 -0.46541
-1.29373 -0.75781 -0.46571
-1.29680 -0.75823 -0.46660
-1.29740 -0.75721 -0.46660
-1.29717 -0.75570 -0.46631
-1.29859 -0.75516 -0.46661
-1.29918 -0.75414 -0.46661
-1.29982 -0.75314 -0.46645
-1.30042 -0.75211 -0.46646
-1.30101 -0.75108 -0.46646
-1.30077 -0.74958 -0.46616
-1.29805 -0.74665 -0.46498
-1.29781 -0.74515 -0.46469
-1.30088 -0.74555 -0.46558
-1.30478 -0.74642 -0.46677
-1.30454 -0.74491 -0.46648
-1.30098 -0.74152 -0.46500
-1.30073 -0.74002 -0.46470
-1.30298 -0.73994 -0.46530
-1.30688 -0.74079 -0.46649
-1.30664 -0.73929 -0.46619
-1.30639 -0.73779 -0.46590
-1.31029 -0.73864 -0.46709
-1.31166 -0.73804 -0.46755
-1.30975 -0.73561 -0.46667
-1.31033 -0.73457 -0.46667
-1.31340 -0.73494 -0.46756
-1.31227 -0.73294 -0.46714
-1.30868 -0.72958 -0.46565
-1.31009 -0.72901 -0.46596
-1.31483 -0.73030 -0.46744
-1.31374 -0.72833 -0.46685
-1.30930 -0.72452 -0.46507
-1.30908 -0.72305 -0.46462
-1.31383 -0.72432 -0.46610
-1.31440 -0.72329 -0.46611
-1.31329 -0.72133 -0.46552
-1.31386 -0.72029 -0.46552
-1.31699 -0.72066 -0.46625
-1.31755 -0.71962 -0.46625
-1.31728 -0.71812 -0.46596
-1.31868 -0.71754 -0.46626
-1.32009 -0.71695 -0.46656
-1.32233 -0.71682 -0.46715
-1.32378 -0.71625 -0.46729
-1.32262 -0.71428 -0.46686
-1.31898 -0.71097 -0.46538
-1.31786 -0.70902 -0.46479
-1.32094 -0.70934 -0.46569
-1.32402 -0.70966 -0.46658
-1.32457 -0.70862 -0.46658
-1.32508 -0.70755 -0.46675
-1.32648 -0.70696 -0.46705
-1.32619 -0.70547 -0.46675
-1.32506 -0.70353 -0.46616
-1.32725 -0.70336 -0.46692
-1.32949 -0.70321 -0.46752
-1.32666 -0.70038 -0.46634
-1.32468 -0.69800 -0.46545
-1.32776 -0.69829 -0.46634
-1.33174 -0.69905 -0.46737
-1.33228 -0.69800 -0.46737
-1.33029 -0.69563 -0.46648
-1.33084 -0.69458 -0.46649
-1.33392 -0.69486 -0.46738
-1.33531 -0.69425 -0.46768
-1.33332 -0.69188 -0.46679
-1.33051 -0.68910 -0.46544
-1.33270 -0.68891 -0.46620
-1.33579 -0.68918 -0.46710
-1.33557 -0.68774 -0.46648
-1.33517 -0.68620 -0.46651
-1.33320 -0.68387 -0.46546
-1.33539 -0.68367 -0.46622
-1.33933 -0.68436 -0.46741
-1.33987 -0.68331 -0.46741
-1.33700 -0.68052 -0.46623
-1.33838 -0.67990 -0.46653
-1.34228 -0.68055 -0.46788
-1.34025 -0.67820 -0.46699
-1.33738 -0.67543 -0.46581
-1.34046 -0.67567 -0.46670
-1.34351 -0.67588 -0.46776
-1.33896 -0.67227 -0.46582
-1.33603 -0.66949 -0.46480
-1.34001 -0.67017 -0.46583
-1.34396 -0.67082 -0.46702
-1.34534 -0.67019 -0.46732
-1.34672 -0.66956 -0.46762
-1.34810 -0.66893 -0.46792
-1.34862 -0.66787 -0.46792
-1.34915 -0.66681 -0.46792
-1.34714 -0.66450 -0.46687
-1.34681 -0.66302 -0.46658
-1.34647 -0.66154 -0.46628
-1.34785 -0.66090 -0.46658
-1.34755 -0.65945 -0.46613
-1.34893 -0.65881 -0.46642
-1.34773 -0.65691 -0.46583
-1.34738 -0.65543 -0.46554
-1.35047 -0.65562 -0.46643
-1.35185 -0.65498 -0.46673
-1.39614 -0.53805 -0.46560
-1.40616 -0.51664 -0.46641
-1.40388 -0.51455 -0.46553
-1.40344 -0.51313 -0.46507
-1.41661 -0.49275 -0.46740
-1.41429 -0.49069 -0.46651
-1.41287 -0.48895 -0.46592
-1.42044 -0.46661 -0.46582
-1.42262 -0.46608 -0.46642
-1.44952 -0.36577 -0.46634
-1.45078 -0.36487 -0.46648
-1.15704 -0.96519 -0.46876
-1.15560 -0.96245 -0.46787
-1.15562 -0.96093 -0.46758
-1.16833 -0.94237 -0.46704
-1.16535 -0.93846 -0.46556
-1.16753 -0.93871 -0.46632
-1.17922 -0.91800 -0.46470
-1.18220 -0.91883 -0.46560
-1.19659 -0.90465 -0.46670
-1.19425 -0.90141 -0.46552
-1.19263 -0.89872 -0.46479
-1.19257 -0.89721 -0.46450
-1.19557 -0.89799 -0.46539
-1.19784 -0.89823 -0.46582
-1.19778 -0.89672 -0.46553
-1.19619 -0.89406 -0.46464
-1.19685 -0.89309 -0.46481
-1.19759 -0.89218 -0.46465
-1.19978 -0.89235 -0.46541
-1.20048 -0.89140 -0.46541
-1.20041 -0.88989 -0.46512
-1.20111 -0.88895 -0.46512
-1.20488 -0.89027 -0.46631
-1.20630 -0.88986 -0.46678
-1.20239 -0.88552 -0.46499
-1.23194 -0.85731 -0.46748
-1.24767 -0.83936 -0.46843
-1.24670 -0.83728 -0.46800
-1.24736 -0.83630 -0.46800
-1.24802 -0.83531 -0.46801
-1.25182 -0.81236 -0.46476
-1.25246 -0.81137 -0.46476
-1.25630 -0.81245 -0.46596
-1.25850 -0.81247 -0.46672
-1.25754 -0.81044 -0.46612
-1.25657 -0.80841 -0.46553
-1.26643 -0.79095 -0.46545
-1.26791 -0.79048 -0.46559
-1.26853 -0.78948 -0.46559
-1.26915 -0.78848 -0.46559
-1.27059 -0.78798 -0.46589
-1.28262 -0.77182 -0.46670
-1.28404 -0.77130 -0.46700
-1.28547 -0.77078 -0.46730
-1.28526 -0.76927 -0.46701
-1.28345 -0.76682 -0.46596
-1.28159 -0.76434 -0.46507
-1.29438 -0.74998 -0.46647
-1.29332 -0.74801 -0.46587
-1.29386 -0.74696 -0.46604
-1.29528 -0.74642 -0.46634
-1.29591 -0.74542 -0.46618
-1.29650 -0.74440 -0.46618
-1.30437 -0.72449 -0.46551
-1.30494 -0.72346 -0.46551
-1.30802 -0.72382 -0.46641
-1.30942 -0.72325 -0.46671
-1.31845 -0.70268 -0.46601
-1.31904 -0.70167 -0.46585
-1.32208 -0.70195 -0.46691
-1.32347 -0.70136 -0.46720
-1.32916 -0.67785 -0.46564
-1.33059 -0.67726 -0.46578
-1.33197 -0.67664 -0.46608
-1.34319 -0.65600 -0.46676
-1.34203 -0.65413 -0.46601
-1.35653 -0.63243 -0.46743
-1.35887 -0.60643 -0.46497
-1.36283 -0.60691 -0.46617
-1.36923 -0.58286 -0.46471
-1.38480 -0.56265 -0.46702
-1.38612 -0.56192 -0.46732
-1.38892 -0.53652 -0.46546
-1.38845 -0.53509 -0.46517
-1.40152 -0.51368 -0.46688
-1.40282 -0.51290 -0.46719
-1.41471 -0.49084 -0.46844
-1.41329 -0.48910 -0.46785
-1.43079 -0.38636 -0.46407
-1.44805 -0.36539 -0.46784
-1.44648 -0.36379 -0.46724
-1.16351 -0.93849 -0.46673
-1.16425 -0.93758 -0.46673
-1.16721 -0.93846 -0.46763
-1.17807 -0.91710 -0.46603
-1.17954 -0.91676 -0.46633
-1.18022 -0.91580 -0.46650
-1.19158 -0.90086 -0.46671
-1.19156 -0.89938 -0.46625
-1.19223 -0.89841 -0.46642
-1.19369 -0.89805 -0.46672
-1.19440 -0.89711 -0.46672
-1.19438 -0.89563 -0.46626
-1.19427 -0.89409 -0.46613
-1.19502 -0.89318 -0.46597
-1.19572 -0.89224 -0.46597
-1.19569 -0.89077 -0.46552
-1.19486 -0.88869 -0.46492
-1.19628 -0.88829 -0.46539
-1.19774 -0.88791 -0.46569
-1.19690 -0.88584 -0.46509
-1.19679 -0.88430 -0.46496
-1.19979 -0.88506 -0.46586
-1.19894 -0.88298 -0.46527
-1.23998 -0.83277 -0.46708
-1.25448 -0.81268 -0.46712
-1.25432 -0.81117 -0.46682
-1.25415 -0.80966 -0.46653
-1.26833 -0.79075 -0.46735
-1.26729 -0.78871 -0.46692
-1.26710 -0.78720 -0.46662
-1.26772 -0.78620 -0.46663
-1.27930 -0.76708 -0.46685
-1.28072 -0.76656 -0.46715
-1.28133 -0.76555 -0.46715
-1.27947 -0.76307 -0.46626
-1.29099 -0.74530 -0.46661
-1.29075 -0.74380 -0.46631
-1.29133 -0.74279 -0.46632
-1.29357 -0.74272 -0.46692
-1.30371 -0.72277 -0.46668
-1.30177 -0.72036 -0.46578
-1.30067 -0.71841 -0.46519
-1.31215 -0.69932 -0.46538
-1.31434 -0.69916 -0.46614
-1.31404 -0.69768 -0.46585
-1.31379 -0.69623 -0.46539
-1.32361 -0.67501 -0.46547
-1.32418 -0.67400 -0.46531
-1.32637 -0.67380 -0.46608
-1.34016 -0.65452 -0.46750
-1.33981 -0.65305 -0.46720
-1.33689 -0.65033 -0.46601
-1.35038 -0.63085 -0.46726
-1.34824 -0.62856 -0.46653
-1.34873 -0.62750 -0.46653
-1.35671 -0.60547 -0.46583
-1.35627 -0.60399 -0.46570
-1.36023 -0.60447 -0.46690
-1.36701 -0.58191 -0.46574
-1.36659 -0.58046 -0.46544
-1.38163 -0.56137 -0.46792
-1.37858 -0.55886 -0.46656
-1.38078 -0.55849 -0.46716
-1.38746 -0.53596 -0.46711
-1.38704 -0.53454 -0.46665
-1.38834 -0.53379 -0.46695
-1.39656 -0.51186 -0.46701
-1.42610 -0.41178 -0.46670
-1.42734 -0.41092 -0.46701
-1.43025 -0.38622 -0.46585
-1.16167 -0.93700 -0.46759
-1.16240 -0.93609 -0.46760
-1.16462 -0.93637 -0.46820
-1.17540 -0.91503 -0.46676
-1.17763 -0.91528 -0.46736
-1.18811 -0.89678 -0.46668
-1.18801 -0.89524 -0.46655
-1.18723 -0.89319 -0.46579
-1.18793 -0.89225 -0.46579
-1.19015 -0.89247 -0.46640
-1.19391 -0.89382 -0.46759
-1.19461 -0.89288 -0.46760
-1.19148 -0.88909 -0.46610
-1.19146 -0.88761 -0.46565
-1.19364 -0.88778 -0.46641
-1.19434 -0.88684 -0.46641
-1.19043 -0.88250 -0.46462
-1.19117 -0.88159 -0.46446
-1.19489 -0.88289 -0.46582
-1.19481 -0.88139 -0.46553
-1.19320 -0.87875 -0.46463
-1.20012 -0.87080 -0.46512
-1.20158 -0.87041 -0.46542
-1.26690 -0.78847 -0.46838
-1.26590 -0.78646 -0.46779
-1.27473 -0.76434 -0.46713
-1.27619 -0.76385 -0.46727
-1.28374 -0.73976 -0.46538
-1.28680 -0.74018 -0.46628
-1.29826 -0.71975 -0.46650
-1.29970 -0.71921 -0.46664
-1.29943 -0.71773 -0.46634
-1.31052 -0.69713 -0.46657
-1.31111 -0.69612 -0.46641
-1.32182 -0.67541 -0.46663
-1.32065 -0.67351 -0.46603
-1.32118 -0.67247 -0.46603
-1.33113 -0.65011 -0.46612
-1.33164 -0.64907 -0.46612
-1.33043 -0.64719 -0.46553
-1.34527 -0.62718 -0.46693
-1.35808 -0.60608 -0.46773
-1.35681 -0.60423 -0.46713
-1.36566 -0.58134 -0.46705
-1.36875 -0.58138 -0.46796
-1.38076 -0.55975 -0.46908
-1.41295 -0.43469 -0.46597
-1.41694 -0.43469 -0.46717
-1.42016 -0.41007 -0.46635
-1.42140 -0.40921 -0.46666
-1.13695 -0.95450 -0.46626
-1.18620 -0.89387 -0.46708
-1.18538 -0.89180 -0.46649
-1.18459 -0.88975 -0.46573
-1.18681 -0.88996 -0.46633
-1.18904 -0.89017 -0.46693
-1.18897 -0.88867 -0.46664
-1.18814 -0.88659 -0.46604
-1.18884 -0.88566 -0.46604
-1.18953 -0.88472 -0.46604
-1.19022 -0.88379 -0.46605
-1.19245 -0.88399 -0.46665
-1.19314 -0.88305 -0.46665
-1.19383 -0.88212 -0.46666
-1.19376 -0.88061 -0.46636
-1.19287 -0.87851 -0.46592
-1.18972 -0.87475 -0.46443
-1.19117 -0.87438 -0.46473
-1.20061 -0.87115 -0.46655
-1.19975 -0.86908 -0.46595
-1.29882 -0.72007 -0.46777
-1.29935 -0.71902 -0.46794
-1.32033 -0.67334 -0.46716
-1.31666 -0.67017 -0.46550
-1.31714 -0.66911 -0.46566
-1.33303 -0.64975 -0.46786
-1.36032 -0.60708 -0.46993
-1.40130 -0.45787 -0.46566
-1.40166 -0.45676 -0.46567
-1.41295 -0.43347 -0.46710
-1.42564 -0.41043 -0.46930
-1.13291 -0.95111 -0.46637
-1.13366 -0.95022 -0.46638
-1.18058 -0.88964 -0.46611
-1.18124 -0.88868 -0.46627
-1.18346 -0.88890 -0.46688
-1.18344 -0.88743 -0.46642
-1.18261 -0.88536 -0.46582
-1.18406 -0.88500 -0.46613
-1.18705 -0.88578 -0.46703
-1.18770 -0.88482 -0.46720
-1.18610 -0.88217 -0.46630
-1.18603 -0.88067 -0.46600
-1.18744 -0.88028 -0.46646
-1.18890 -0.87991 -0.46677
-1.18886 -0.87844 -0.46631
-1.18874 -0.87691 -0.46617
-1.18943 -0.87598 -0.46617
-1.18858 -0.87391 -0.46557
-1.18773 -0.87185 -0.46498
-1.18918 -0.87148 -0.46528
-1.19805 -0.87074 -0.46724
-1.19873 -0.86979 -0.46724
-1.20178 -0.87055 -0.46799
-1.21128 -0.84720 -0.46641
-1.21426 -0.84786 -0.46747
-1.22589 -0.82752 -0.46693
-1.22416 -0.82495 -0.46603
