-1.41930 -0.57537 -0.46663
-1.41620 -0.57282 -0.46546
-1.41754 -0.57206 -0.46576
-1.41972 -0.57164 -0.46651
-1.41932 -0.57019 -0.46605
-1.41795 -0.56834 -0.46564
-1.41928 -0.56758 -0.46593
-1.42061 -0.56682 -0.46623
-1.42022 -0.56537 -0.46577
-1.42155 -0.56460 -0.46607
-1.42288 -0.56384 -0.46636
-1.42155 -0.56201 -0.46578
-1.42110 -0.56054 -0.46549
-1.42154 -0.55942 -0.46550
-1.42291 -0.55868 -0.46563
-1.42246 -0.55721 -0.46534
-1.42557 -0.55713 -0.46621
-1.42868 -0.55705 -0.46709
-1.42644 -0.55489 -0.46622
-1.42692 -0.55378 -0.46606
-1.42736 -0.55266 -0.46606
-1.42596 -0.55083 -0.46565
-1.42371 -0.54868 -0.46478
-1.42325 -0.54721 -0.46449
-1.42636 -0.54712 -0.46536
-1.42679 -0.54600 -0.46537
-1.42722 -0.54488 -0.46537
-1.43028 -0.54476 -0.46642
-1.43071 -0.54363 -0.46642
-1.42934 -0.54183 -0.46584
-1.42887 -0.54036 -0.46555
-1.43198 -0.54025 -0.46643
-1.43330 -0.53946 -0.46672
-1.43189 -0.53765 -0.46631
-1.43146 -0.53620 -0.46585
-1.43098 -0.53474 -0.46557
-1.43140 -0.53361 -0.46557
-1.43182 -0.53249 -0.46557
-1.43224 -0.53136 -0.46558
-1.43535 -0.53122 -0.46645
-1.43851 -0.53110 -0.46716
-1.43892 -0.52997 -0.46717
-1.43660 -0.52782 -0.46646
-1.43522 -0.52603 -0.46588
-1.43748 -0.52557 -0.46630
-1.43699 -0.52411 -0.46601
-1.43740 -0.52298 -0.46602
-1.43781 -0.52184 -0.46602
-1.43732 -0.52038 -0.46573
-1.43769 -0.51923 -0.46590
-1.43715 -0.51775 -0.46578
-1.43760 -0.51664 -0.46561
-1.43891 -0.51582 -0.46591
-1.44112 -0.51533 -0.46649
-1.44057 -0.51386 -0.46637
-1.43917 -0.51208 -0.46579
-1.43958 -0.51094 -0.46580
-1.44268 -0.51077 -0.46667
-1.44304 -0.50961 -0.46684
-1.44163 -0.50784 -0.46626
-1.44023 -0.50606 -0.46568
-1.44248 -0.50558 -0.46610
-1.44554 -0.50537 -0.46715
-1.44598 -0.50424 -0.46698
-1.44372 -0.50218 -0.46594
-1.44592 -0.50166 -0.46653
-1.44988 -0.50176 -0.46787
-1.44304 -0.49812 -0.46554
-1.44258 -0.49668 -0.46508
-1.44659 -0.49679 -0.46625
-1.44788 -0.49595 -0.46655
-1.44737 -0.49450 -0.46626
-1.44961 -0.49400 -0.46668
-1.45181 -0.49347 -0.46726
-1.44858 -0.49109 -0.46610
-1.44806 -0.48964 -0.46581
-1.45026 -0.48911 -0.46640
-1.45064 -0.48797 -0.46640
-1.44921 -0.48621 -0.46582
-1.44959 -0.48507 -0.46582
-1.45174 -0.48451 -0.46658
-1.45212 -0.48337 -0.46658
-1.45159 -0.48192 -0.46629
-1.45102 -0.48046 -0.46617
-1.45139 -0.47931 -0.46617
-1.45182 -0.47818 -0.46601
-1.45396 -0.47762 -0.46676
-1.45530 -0.47679 -0.46689
-1.45471 -0.47532 -0.46677
-1.45236 -0.47329 -0.46590
-1.45637 -0.47332 -0.46707
-1.45947 -0.47306 -0.46794
-1.45984 -0.47191 -0.46795
-1.45657 -0.46958 -0.46678
-1.45421 -0.46755 -0.46591
-1.45736 -0.46730 -0.46662
-1.46046 -0.46702 -0.46750
-1.46083 -0.46587 -0.46750
-1.46119 -0.46472 -0.46751
-1.46156 -0.46356 -0.46751
-1.46197 -0.46242 -0.46735
-1.46137 -0.46097 -0.46723
-1.46174 -0.45981 -0.46723
-1.46119 -0.45837 -0.46694
-1.46063 -0.45693 -0.46665
-1.46003 -0.45548 -0.46653
-1.46130 -0.45461 -0.46682
-1.46440 -0.45431 -0.46770
-1.46851 -0.43408 -0.46717
-1.46885 -0.43293 -0.46717
-1.47103 -0.43231 -0.46776
-1.48616 -0.36505 -0.46697
-1.48366 -0.36320 -0.46610
-1.48028 -0.36113 -0.46476
-1.16459 -0.99501 -0.46571
-1.16319 -0.99223 -0.46484
-1.18387 -0.97815 -0.46660
-1.21896 -0.92609 -0.46531
-1.21816 -0.92397 -0.46473
-1.22197 -0.92535 -0.46573
-1.22571 -0.92667 -0.46706
-1.22415 -0.92398 -0.46619
-1.22182 -0.92071 -0.46503
-1.22173 -0.91915 -0.46491
-1.22551 -0.92049 -0.46608
-1.22853 -0.92124 -0.46695
-1.22768 -0.91910 -0.46654
-1.22610 -0.91642 -0.46567
-1.22682 -0.91546 -0.46568
-1.22831 -0.91506 -0.46597
-1.23056 -0.91524 -0.46655
-1.23128 -0.91427 -0.46656
-1.22969 -0.91160 -0.46569
-1.23040 -0.91063 -0.46569
-1.24621 -0.89378 -0.46662
-1.24376 -0.89053 -0.46563
-1.24446 -0.88955 -0.46563
-1.25694 -0.87030 -0.46506
-1.25605 -0.86822 -0.46448
-1.34284 -0.74032 -0.46725
-1.36226 -0.69338 -0.46592
-1.37832 -0.67182 -0.46744
-1.38340 -0.64760 -0.46609
-1.38655 -0.64775 -0.46680
-1.38706 -0.64666 -0.46680
-1.39300 -0.62429 -0.46586
-1.39087 -0.62202 -0.46499
-1.39131 -0.62091 -0.46516
-1.39496 -0.60812 -0.46427
-1.39719 -0.60779 -0.46486
-1.39772 -0.60671 -0.46470
-1.40166 -0.60711 -0.46603
-1.40301 -0.60638 -0.46633
-1.40261 -0.60490 -0.46604
-1.40220 -0.60342 -0.46575
-1.40439 -0.60305 -0.46650
-1.40486 -0.60194 -0.46651
-1.40182 -0.59933 -0.46534
-1.40141 -0.59786 -0.46505
-1.40276 -0.59713 -0.46535
-1.40318 -0.59601 -0.46552
-1.40541 -0.59565 -0.46610
-1.40675 -0.59491 -0.46640
-1.40551 -0.59308 -0.46565
-1.40421 -0.59123 -0.46507
-1.40462 -0.59011 -0.46524
-1.40416 -0.58862 -0.46512
-1.40378 -0.58716 -0.46466
-1.40425 -0.58606 -0.46467
-1.40382 -0.58458 -0.46438
-1.40428 -0.58348 -0.46438
-1.41097 -0.58496 -0.46626
-1.41054 -0.58348 -0.46597
-1.40835 -0.58128 -0.46510
-1.40881 -0.58017 -0.46510
-1.41019 -0.57944 -0.46523
-1.41153 -0.57870 -0.46553
-1.41287 -0.57795 -0.46582
-1.41421 -0.57720 -0.46612
-1.41643 -0.57681 -0.46670
-1.41689 -0.57569 -0.46671
-1.41556 -0.57386 -0.46613
-1.41335 -0.57167 -0.46525
-1.41380 -0.57056 -0.46525
-1.41425 -0.56944 -0.46526
-1.41381 -0.56798 -0.46497
-1.41425 -0.56686 -0.46497
-1.41736 -0.56681 -0.46585
-1.41781 -0.56570 -0.46585
-1.41909 -0.56492 -0.46632
-1.42043 -0.56415 -0.46661
-1.41998 -0.56268 -0.46632
-1.41686 -0.56016 -0.46516
-1.41725 -0.55903 -0.46533
-1.42036 -0.55896 -0.46620
-1.41991 -0.55750 -0.46592
-1.41946 -0.55603 -0.46563
-1.42257 -0.55596 -0.46651
-1.42211 -0.55449 -0.46622
-1.42076 -0.55268 -0.46564
-1.42120 -0.55156 -0.46564
-1.42435 -0.55150 -0.46635
-1.42746 -0.55141 -0.46723
-1.42611 -0.54960 -0.46665
-1.42297 -0.54710 -0.46548
-1.42250 -0.54564 -0.46520
-1.42561 -0.54555 -0.46608
-1.42698 -0.54478 -0.46620
-1.42647 -0.54330 -0.46608
-1.42510 -0.54150 -0.46550
-1.42463 -0.54004 -0.46521
-1.42506 -0.53892 -0.46521
-1.42637 -0.53814 -0.46551
-1.42680 -0.53702 -0.46551
-1.42627 -0.53554 -0.46539
-1.42674 -0.53443 -0.46523
-1.42801 -0.53363 -0.46569
-1.43112 -0.53351 -0.46657
-1.43153 -0.53238 -0.46657
-1.43101 -0.53090 -0.46645
-1.43147 -0.52979 -0.46629
-1.42915 -0.52765 -0.46558
-1.43136 -0.52718 -0.46616
-1.43272 -0.52640 -0.46629
-1.43044 -0.52428 -0.46542
-1.42991 -0.52281 -0.46530
-1.43486 -0.52333 -0.46659
-1.43792 -0.52316 -0.46764
-1.43478 -0.52074 -0.46631
-1.43249 -0.51863 -0.46543
-1.43470 -0.51815 -0.46602
-1.43336 -0.51639 -0.46527
-1.43286 -0.51493 -0.46499
-1.43502 -0.51443 -0.46574
-1.43817 -0.51428 -0.46645
-1.43592 -0.51220 -0.46541
-1.43543 -0.51075 -0.46512
-1.43668 -0.50992 -0.46559
-1.43888 -0.50942 -0.46617
-1.44024 -0.50862 -0.46630
-1.44063 -0.50748 -0.46631
-1.44099 -0.50633 -0.46647
-1.44138 -0.50519 -0.46648
-1.44088 -0.50374 -0.46619
-1.44218 -0.50292 -0.46648
-1.44523 -0.50270 -0.46753
-1.44563 -0.50156 -0.46753
-1.44512 -0.50011 -0.46724
-1.44461 -0.49866 -0.46695
-1.44591 -0.49783 -0.46725
-1.44444 -0.49605 -0.46683
-1.44216 -0.49400 -0.46579
-1.44522 -0.49377 -0.46684
-1.44747 -0.49326 -0.46726
-1.44604 -0.49151 -0.46668
-1.44371 -0.48944 -0.46581
-1.44682 -0.48922 -0.46669
-1.44811 -0.48839 -0.46698
-1.44582 -0.48634 -0.46594
-1.44253 -0.48397 -0.46494
-1.44381 -0.48313 -0.46524
-1.44601 -0.48260 -0.46582
-1.44911 -0.48237 -0.46670
-1.45135 -0.48184 -0.46713
-1.45077 -0.48038 -0.46700
-1.45029 -0.47895 -0.46655
-1.45067 -0.47781 -0.46655
-1.45645 -0.47844 -0.46847
-1.45137 -0.47550 -0.46672
-1.44806 -0.47315 -0.46572
-1.45537 -0.45655 -0.46635
-1.45390 -0.45483 -0.46577
-1.45614 -0.45427 -0.46619
-1.46106 -0.45454 -0.46766
-1.47039 -0.43338 -0.46876
-1.47257 -0.43276 -0.46935
-1.48024 -0.36360 -0.46638
-1.47960 -0.36220 -0.46609
-1.47622 -0.36014 -0.46476
-1.17765 -0.97301 -0.46561
-1.21711 -0.92318 -0.46560
-1.21551 -0.92046 -0.46490
-1.21551 -0.91896 -0.46444
-1.21852 -0.91973 -0.46532
-1.22230 -0.92107 -0.46649
-1.22302 -0.92012 -0.46649
-1.22217 -0.91797 -0.46608
-1.22136 -0.91587 -0.46550
-1.22284 -0.91548 -0.46580
-1.22433 -0.91509 -0.46609
-1.22504 -0.91413 -0.46609
-1.22576 -0.91317 -0.46610
-1.22724 -0.91277 -0.46639
-1.22638 -0.91064 -0.46598
-1.22633 -0.90911 -0.46569
-1.22627 -0.90757 -0.46540
-1.24600 -0.89363 -0.46746
-1.24515 -0.89153 -0.46688
-1.25596 -0.87109 -0.46623
-1.25507 -0.86901 -0.46565
-1.25733 -0.86911 -0.46623
-1.26681 -0.84644 -0.46517
-1.27150 -0.84812 -0.46646
-1.27968 -0.82328 -0.46465
-1.35853 -0.69148 -0.46592
-1.35993 -0.69085 -0.46621
-1.36969 -0.66895 -0.46614
-1.36936 -0.66745 -0.46586
-1.36992 -0.66640 -0.46569
-1.37427 -0.64596 -0.46461
-1.37737 -0.64610 -0.46549
-1.37961 -0.64583 -0.46608
-1.38271 -0.64596 -0.46696
-1.38062 -0.64366 -0.46609
-1.37592 -0.64015 -0.46434
-1.37642 -0.63907 -0.46434
-1.38391 -0.64123 -0.46652
-1.38528 -0.64054 -0.46681
-1.37884 -0.63625 -0.46448
-1.37847 -0.63477 -0.46419
-1.38418 -0.63608 -0.46594
-1.38555 -0.63539 -0.46624
-1.38257 -0.63271 -0.46507
-1.38567 -0.63281 -0.46595
-1.38443 -0.63093 -0.46537
-1.38323 -0.62907 -0.46462
-1.38372 -0.62798 -0.46463
-1.38678 -0.62806 -0.46567
-1.38814 -0.62736 -0.46597
-1.38689 -0.62548 -0.46539
-1.38651 -0.62400 -0.46510
-1.38700 -0.62291 -0.46510
-1.38836 -0.62221 -0.46540
-1.38880 -0.62110 -0.46556
-1.38667 -0.61884 -0.46469
-1.38366 -0.61619 -0.46352
-1.38589 -0.61588 -0.46411
-1.38900 -0.61595 -0.46499
-1.39035 -0.61524 -0.46529
-1.39254 -0.61490 -0.46604
-1.39390 -0.61419 -0.46634
-1.39175 -0.61194 -0.46546
-1.38878 -0.60933 -0.46413
-1.38926 -0.60823 -0.46413
-1.39061 -0.60752 -0.46443
-1.39279 -0.60717 -0.46518
-1.39682 -0.60762 -0.46619
-1.39905 -0.60729 -0.46678
-1.39777 -0.60542 -0.46620
-1.39825 -0.60433 -0.46620
-1.39877 -0.60324 -0.46603
-1.39924 -0.60214 -0.46604
-1.39972 -0.60104 -0.46604
-1.39843 -0.59919 -0.46546
-1.39719 -0.59736 -0.46471
-1.39853 -0.59663 -0.46501
-1.39900 -0.59553 -0.46501
-1.39942 -0.59441 -0.46518
-1.40082 -0.59370 -0.46531
-1.40124 -0.59258 -0.46548
-1.40170 -0.59148 -0.46548
-1.40393 -0.59112 -0.46607
-1.40351 -0.58964 -0.46578
-1.40216 -0.58778 -0.46536
-1.40262 -0.58667 -0.46536
-1.40573 -0.58668 -0.46625
-1.40614 -0.58555 -0.46642
-1.40395 -0.58334 -0.46554
-1.40269 -0.58153 -0.46479
-1.40315 -0.58042 -0.46480
-1.40267 -0.57893 -0.46467
-1.40406 -0.57821 -0.46480
-1.40716 -0.57820 -0.46568
-1.40673 -0.57673 -0.46539
-1.40718 -0.57562 -0.46540
-1.41034 -0.57562 -0.46611
-1.40897 -0.57377 -0.46570
-1.40854 -0.57230 -0.46541
-1.41164 -0.57227 -0.46629
-1.41298 -0.57152 -0.46658
-1.41259 -0.57007 -0.46613
-1.40949 -0.56752 -0.46496
-1.40988 -0.56640 -0.46513
-1.41304 -0.56637 -0.46584
-1.41432 -0.56560 -0.46630
-1.41121 -0.56307 -0.46514
-1.41165 -0.56196 -0.46514
-1.41387 -0.56155 -0.46573
-1.41520 -0.56079 -0.46602
-1.41386 -0.55898 -0.46544
-1.41425 -0.55785 -0.46561
-1.41469 -0.55673 -0.46561
-1.41424 -0.55527 -0.46532
-1.41467 -0.55416 -0.46533
-1.41867 -0.55444 -0.46650
-1.42089 -0.55401 -0.46709
-1.41687 -0.55116 -0.46563
-1.41462 -0.54901 -0.46475
-1.42036 -0.54995 -0.46668
-1.42351 -0.54988 -0.46739
-1.42394 -0.54876 -0.46740
-1.42170 -0.54661 -0.46652
-1.42128 -0.54517 -0.46607
-1.42081 -0.54371 -0.46578
-1.42124 -0.54259 -0.46578
-1.42167 -0.54148 -0.46578
-1.42298 -0.54070 -0.46608
-1.42256 -0.53926 -0.46562
-1.42209 -0.53780 -0.46533
-1.42341 -0.53702 -0.46563
-1.42562 -0.53657 -0.46622
-1.42604 -0.53545 -0.46622
-1.42646 -0.53433 -0.46622
-1.42688 -0.53320 -0.46623
-1.42729 -0.53208 -0.46623
-1.42502 -0.52996 -0.46535
-1.42539 -0.52882 -0.46552
-1.42670 -0.52802 -0.46582
-1.42891 -0.52756 -0.46641
-1.42749 -0.52575 -0.46599
-1.42790 -0.52463 -0.46599
-1.42831 -0.52350 -0.46600
-1.42962 -0.52270 -0.46629
-1.43183 -0.52223 -0.46688
-1.43134 -0.52077 -0.46659
-1.42995 -0.51899 -0.46601
-1.43126 -0.51819 -0.46631
-1.43257 -0.51738 -0.46660
-1.43297 -0.51625 -0.46660
-1.43338 -0.51512 -0.46661
-1.43739 -0.51528 -0.46778
-1.43784 -0.51416 -0.46762
-1.43464 -0.51174 -0.46645
-1.43234 -0.50965 -0.46558
-1.43364 -0.50884 -0.46587
-1.43584 -0.50835 -0.46646
-1.43624 -0.50721 -0.46646
-1.43845 -0.50671 -0.46705
-1.43975 -0.50589 -0.46735
-1.43744 -0.50381 -0.46647
-1.43688 -0.50234 -0.46635
-1.43823 -0.50154 -0.46648
-1.43953 -0.50072 -0.46677
-1.43897 -0.49925 -0.46665
-1.44027 -0.49843 -0.46695
-1.44427 -0.49854 -0.46812
-1.44014 -0.49584 -0.46666
-1.44139 -0.49500 -0.46712
-1.44449 -0.49479 -0.46800
-1.44738 -0.48052 -0.46712
-1.44776 -0.47938 -0.46712
-1.44814 -0.47824 -0.46713
-1.44761 -0.47680 -0.46684
-1.45361 -0.45474 -0.46677
-1.45762 -0.45473 -0.46794
-1.46693 -0.37632 -0.46427
-1.46723 -0.37516 -0.46427
-1.47525 -0.36237 -0.46608
-1.47373 -0.36077 -0.46533
-1.47490 -0.35982 -0.46579
-1.17813 -0.97496 -0.46719
-1.17815 -0.97343 -0.46690
-1.18043 -0.97375 -0.46732
-1.19100 -0.95144 -0.46596
-1.21069 -0.91831 -0.46460
-1.21069 -0.91681 -0.46414
-1.21217 -0.91644 -0.46444
-1.21289 -0.91548 -0.46444
-1.21510 -0.91565 -0.46519
-1.21734 -0.91585 -0.46578
-1.21581 -0.91320 -0.46474
-1.21652 -0.91224 -0.46474
-1.21877 -0.91243 -0.46533
-1.22102 -0.91262 -0.46592
-1.22093 -0.91106 -0.46580
-1.22011 -0.90895 -0.46521
-1.22231 -0.90911 -0.46597
-1.22610 -0.91043 -0.46714
-1.22608 -0.90892 -0.46669
-1.22218 -0.90455 -0.46493
-1.21977 -0.90128 -0.46393
-1.25478 -0.86881 -0.46681
-1.25368 -0.85350 -0.46392
-1.25748 -0.85463 -0.46525
-1.26052 -0.85525 -0.46614
-1.25803 -0.85211 -0.46497
-1.25549 -0.84894 -0.46397
-1.25616 -0.84795 -0.46397
-1.26000 -0.84910 -0.46514
-1.26230 -0.84920 -0.46557
-1.26292 -0.84817 -0.46573
-1.26284 -0.84667 -0.46528
-1.26346 -0.84565 -0.46545
-1.26333 -0.84412 -0.46516
-1.26404 -0.84315 -0.46499
-1.26630 -0.84321 -0.46558
-1.26855 -0.84327 -0.46617
-1.26926 -0.84230 -0.46601
-1.26753 -0.83971 -0.46514
-1.26580 -0.83713 -0.46426
-1.27422 -0.82404 -0.46463
-1.27407 -0.82252 -0.46434
-1.27713 -0.82306 -0.46522
-1.27934 -0.82306 -0.46598
-1.27923 -0.82156 -0.46552
-1.27826 -0.81952 -0.46494
-1.28472 -0.80944 -0.46480
-1.28374 -0.80740 -0.46422
-1.28519 -0.80690 -0.46452
-1.28984 -0.80133 -0.46466
-1.29206 -0.80130 -0.46542
-1.29269 -0.80028 -0.46542
-1.29532 -0.79205 -0.46535
-1.29521 -0.79058 -0.46473
-1.29665 -0.79005 -0.46503
-1.29891 -0.79002 -0.46562
-1.29871 -0.78850 -0.46532
-1.29770 -0.78649 -0.46474
-1.29750 -0.78497 -0.46445
-1.29648 -0.78295 -0.46387
-1.30000 -0.77532 -0.46343
-1.31296 -0.76629 -0.46585
-1.31357 -0.76526 -0.46585
-1.33482 -0.72359 -0.46522
-1.33370 -0.72162 -0.46464
-1.33175 -0.71921 -0.46376
-1.33147 -0.71770 -0.46347
-1.33597 -0.71742 -0.46465
-1.33653 -0.71637 -0.46465
-1.33456 -0.71396 -0.46378
-1.33428 -0.71246 -0.46349
-1.33653 -0.71231 -0.46408
-1.33962 -0.71261 -0.46496
-1.33933 -0.71111 -0.46467
-1.33820 -0.70916 -0.46408
-1.33960 -0.70856 -0.46438
-1.34265 -0.70882 -0.46543
-1.34400 -0.70818 -0.46589
-1.34371 -0.70668 -0.46560
-1.34177 -0.70432 -0.46456
-1.33974 -0.70191 -0.46385
-1.34113 -0.70130 -0.46414
-1.34423 -0.70157 -0.46503
-1.34478 -0.70051 -0.46503
-1.34448 -0.69902 -0.46474
-1.34677 -0.69886 -0.46516
-1.34812 -0.69822 -0.46562
-1.34612 -0.69585 -0.46475
-1.34501 -0.69393 -0.46400
-1.34895 -0.69463 -0.46517
-1.35124 -0.69446 -0.46560
-1.34924 -0.69209 -0.46472
-1.35063 -0.69147 -0.46502
-1.35287 -0.69128 -0.46561
-1.35427 -0.69065 -0.46590
-1.35310 -0.68872 -0.46532
-1.35109 -0.68635 -0.46444
-1.34996 -0.68445 -0.46370
-1.35050 -0.68339 -0.46370
-1.35274 -0.68319 -0.46429
-1.35665 -0.68383 -0.46563
-1.35889 -0.68362 -0.46622
-1.35686 -0.68126 -0.46534
-1.35564 -0.67932 -0.46492
-1.35703 -0.67868 -0.46522
-1.36013 -0.67889 -0.46610
-1.35981 -0.67740 -0.46581
-1.35858 -0.67546 -0.46539
-1.35996 -0.67481 -0.46569
-1.35964 -0.67332 -0.46540
-1.35845 -0.67141 -0.46482
-1.35898 -0.67034 -0.46482
-1.35779 -0.66842 -0.46424
-1.35831 -0.66736 -0.46424
-1.36055 -0.66713 -0.46483
-1.36198 -0.66651 -0.46496
-1.36336 -0.66585 -0.46526
-1.36388 -0.66478 -0.46526
-1.36526 -0.66413 -0.46555
-1.36492 -0.66264 -0.46526
-1.36372 -0.66073 -0.46468
-1.36252 -0.65883 -0.46410
-1.36648 -0.65942 -0.46527
-1.37048 -0.66003 -0.46628
-1.36751 -0.65727 -0.46528
-1.36199 -0.65330 -0.46323
-1.36423 -0.65306 -0.46382
-1.36991 -0.65446 -0.46558
-1.37129 -0.65379 -0.46588
-1.36921 -0.65148 -0.46500
-1.36972 -0.65041 -0.46501
-1.37278 -0.65054 -0.46605
-1.37329 -0.64946 -0.46606
-1.37380 -0.64838 -0.46606
-1.37344 -0.64689 -0.46577
-1.37308 -0.64540 -0.46548
-1.37268 -0.64390 -0.46535
-1.37231 -0.64241 -0.46506
-1.37368 -0.64174 -0.46536
-1.37683 -0.64189 -0.46608
-1.37820 -0.64121 -0.46637
-1.37606 -0.63890 -0.46566
-1.37569 -0.63742 -0.46537
-1.37624 -0.63636 -0.46521
-1.37673 -0.63528 -0.46521
-1.37723 -0.63419 -0.46522
-1.37860 -0.63351 -0.46551
-1.37827 -0.63205 -0.46506
-1.38050 -0.63176 -0.46565
-1.38192 -0.63110 -0.46578
-1.37975 -0.62880 -0.46507
-1.37764 -0.62653 -0.46419
-1.37900 -0.62584 -0.46448
-1.38210 -0.62594 -0.46537
-1.38259 -0.62485 -0.46537
-1.38225 -0.62340 -0.46492
-1.38362 -0.62270 -0.46521
-1.38493 -0.62198 -0.46567
-1.38367 -0.62011 -0.46509
-1.38246 -0.61826 -0.46434
-1.38377 -0.61754 -0.46480
-1.38596 -0.61721 -0.46556
-1.38731 -0.61651 -0.46585
-1.38605 -0.61464 -0.46527
-1.38566 -0.61316 -0.46498
-1.38692 -0.61242 -0.46561
-1.38920 -0.61212 -0.46603
-1.38968 -0.61103 -0.46603
-1.38928 -0.60955 -0.46574
-1.39068 -0.60886 -0.46587
-1.39116 -0.60776 -0.46588
-1.38988 -0.60591 -0.46529
-1.38948 -0.60443 -0.46500
-1.39088 -0.60374 -0.46514
-1.39223 -0.60302 -0.46543
-1.39358 -0.60231 -0.46573
-1.39318 -0.60083 -0.46544
-1.39277 -0.59936 -0.46515
-1.39329 -0.59828 -0.46498
-1.39634 -0.59830 -0.46603
-1.39769 -0.59757 -0.46633
-1.39636 -0.59570 -0.46591
-1.39682 -0.59460 -0.46591
-1.39729 -0.59350 -0.46592
-1.39599 -0.59166 -0.46533
-1.39382 -0.58944 -0.46446
-1.39428 -0.58835 -0.46446
-1.39910 -0.58908 -0.46609
-1.40132 -0.58872 -0.46669
-1.40002 -0.58688 -0.46610
-1.39960 -0.58541 -0.46581
-1.40094 -0.58468 -0.46611
-1.40052 -0.58321 -0.46582
-1.39833 -0.58101 -0.46494
-1.39967 -0.58027 -0.46524
-1.40361 -0.58061 -0.46658
-1.40146 -0.57843 -0.46553
-1.40191 -0.57733 -0.46554
-1.40586 -0.57766 -0.46688
-1.40631 -0.57656 -0.46688
-1.40415 -0.57438 -0.46584
-1.40460 -0.57328 -0.46584
-1.40687 -0.57291 -0.46627
-1.40821 -0.57217 -0.46657
-1.40865 -0.57106 -0.46657
-1.40822 -0.56959 -0.46628
-1.40960 -0.56886 -0.46641
-1.41004 -0.56775 -0.46641
-1.40783 -0.56557 -0.46553
-1.40561 -0.56340 -0.46466
-1.40516 -0.56193 -0.46437
-1.40827 -0.56189 -0.46525
-1.40955 -0.56112 -0.46571
-1.41004 -0.56003 -0.46555
-1.41132 -0.55925 -0.46601
-1.41353 -0.55885 -0.46660
-1.41392 -0.55771 -0.46677
-1.41080 -0.55520 -0.46560
-1.40862 -0.55306 -0.46456
-1.41350 -0.55370 -0.46603
-1.41651 -0.55359 -0.46724
-1.41432 -0.55145 -0.46620
-1.41653 -0.55103 -0.46679
-1.41964 -0.55096 -0.46767
-1.41918 -0.54949 -0.46738
-1.41694 -0.54734 -0.46650
-1.41652 -0.54590 -0.46605
-1.41873 -0.54548 -0.46664
-1.42001 -0.54468 -0.46710
-1.41865 -0.54288 -0.46652
-1.41555 -0.54042 -0.46518
-1.41597 -0.53931 -0.46518
-1.41908 -0.53921 -0.46607
-1.42129 -0.53877 -0.46666
-1.42350 -0.53833 -0.46725
-1.42124 -0.53620 -0.46637
-1.41897 -0.53407 -0.46549
-1.42123 -0.53364 -0.46592
-1.42429 -0.53351 -0.46697
-1.42381 -0.53206 -0.46667
-1.42154 -0.52994 -0.46580
-1.42375 -0.52948 -0.46639
-1.42770 -0.52967 -0.46773
-1.42812 -0.52855 -0.46773
-1.42674 -0.52676 -0.46715
-1.42446 -0.52464 -0.46627
-1.42577 -0.52385 -0.46657
-1.42798 -0.52338 -0.46716
-1.43014 -0.52289 -0.46791
-1.43145 -0.52209 -0.46821
-1.42911 -0.51996 -0.46750
-1.42508 -0.51722 -0.46587
-1.42728 -0.51675 -0.46646
-1.43578 -0.51854 -0.46910
-1.43709 -0.51773 -0.46940
-1.43120 -0.51434 -0.46735
-1.43075 -0.51290 -0.46689
-1.43385 -0.51274 -0.46777
-1.43981 -0.50464 -0.46851
-1.43299 -0.50098 -0.46617
-1.43519 -0.50048 -0.46676
-1.44009 -0.50092 -0.46823
-1.44321 -0.47661 -0.46699
-1.44359 -0.47547 -0.46699
-1.47244 -0.37650 -0.46719
-1.47366 -0.37557 -0.46749
-1.47334 -0.36067 -0.46665
-1.46996 -0.35861 -0.46531
-1.18550 -0.95010 -0.46565
-1.18326 -0.94678 -0.46448
-1.18624 -0.94764 -0.46536
-1.20095 -0.93038 -0.46588
-1.20020 -0.92829 -0.46513
-1.20093 -0.92735 -0.46514
-1.21193 -0.91925 -0.46634
-1.20965 -0.91602 -0.46501
-1.20956 -0.91446 -0.46488
-1.21181 -0.91466 -0.46547
-1.21256 -0.91374 -0.46531
-1.21400 -0.91333 -0.46577
-1.21468 -0.91235 -0.46594
-1.21314 -0.90970 -0.46490
-1.21768 -0.91161 -0.46637
-1.22069 -0.91238 -0.46725
-1.21834 -0.90913 -0.46608
-1.21595 -0.90586 -0.46508
-1.21819 -0.90604 -0.46566
-1.21967 -0.90565 -0.46596
-1.21731 -0.90242 -0.46479
-1.21648 -0.90032 -0.46421
-1.25125 -0.85474 -0.46477
-1.24873 -0.85157 -0.46377
-1.25098 -0.85166 -0.46436
-1.25402 -0.85228 -0.46524
-1.25465 -0.85126 -0.46541
-1.25532 -0.85027 -0.46541
-1.25599 -0.84928 -0.46542
-1.25903 -0.84989 -0.46630
-1.26050 -0.84943 -0.46659
-1.25954 -0.84734 -0.46618
-1.25787 -0.84478 -0.46513
-1.26012 -0.84485 -0.46572
-1.26396 -0.84598 -0.46690
-1.26463 -0.84498 -0.46690
-1.26132 -0.84133 -0.46544
-1.26039 -0.83928 -0.46486
-1.26264 -0.83934 -0.46545
-1.26251 -0.83781 -0.46515
-1.26161 -0.83579 -0.46441
-1.26307 -0.83532 -0.46470
-1.26532 -0.83538 -0.46529
-1.26682 -0.83493 -0.46542
-1.26748 -0.83393 -0.46543
-1.26734 -0.83241 -0.46514
-1.26799 -0.83141 -0.46514
-1.26945 -0.83093 -0.46544
-1.27006 -0.82990 -0.46560
-1.26995 -0.82840 -0.46515
-1.26900 -0.82636 -0.46457
-1.26725 -0.82379 -0.46369
-1.26710 -0.82227 -0.46340
-1.26931 -0.82228 -0.46415
-1.27236 -0.82284 -0.46504
-1.27297 -0.82181 -0.46520
-1.27201 -0.81976 -0.46462
-1.27350 -0.81930 -0.46475
-1.27491 -0.81879 -0.46521
-1.27394 -0.81675 -0.46463
-1.27458 -0.81575 -0.46463
-1.27603 -0.81525 -0.46493
-1.27667 -0.81425 -0.46493
-1.27655 -0.81275 -0.46448
-1.27639 -0.81123 -0.46419
-1.27702 -0.81022 -0.46419
-1.28089 -0.81126 -0.46536
-1.28396 -0.81178 -0.46625
-1.28217 -0.80924 -0.46537
-1.27957 -0.80619 -0.46420
-1.27859 -0.80416 -0.46362
-1.27922 -0.80315 -0.46362
-1.28228 -0.80366 -0.46450
-1.28292 -0.80265 -0.46451
-1.28355 -0.80164 -0.46451
-1.28742 -0.80265 -0.46569
-1.29211 -0.80416 -0.46716
-1.28950 -0.80112 -0.46598
-1.28521 -0.79705 -0.46439
-1.28421 -0.79503 -0.46381
-1.28891 -0.79653 -0.46528
-1.28953 -0.79551 -0.46528
-1.28853 -0.79349 -0.46470
-1.29160 -0.79398 -0.46558
-1.29381 -0.79393 -0.46634
-1.29203 -0.79144 -0.46529
-1.29021 -0.78892 -0.46442
-1.29324 -0.78937 -0.46547
-1.29467 -0.78885 -0.46576
-1.29284 -0.78634 -0.46488
-1.29106 -0.78385 -0.46384
-1.29408 -0.78429 -0.46489
-1.29715 -0.78476 -0.46577
-1.29700 -0.78327 -0.46532
-1.29516 -0.78076 -0.46444
-1.29659 -0.78023 -0.46474
-1.29725 -0.77924 -0.46458
-1.29700 -0.77769 -0.46445
-1.29843 -0.77716 -0.46475
-1.30155 -0.77763 -0.46547
-1.30216 -0.77660 -0.46547
-1.30031 -0.77411 -0.46459
-1.30014 -0.77262 -0.46414
-1.30157 -0.77208 -0.46443
-1.30218 -0.77106 -0.46443
-1.30278 -0.77003 -0.46444
-1.30335 -0.76897 -0.46461
-1.30478 -0.76843 -0.46490
-1.30620 -0.76788 -0.46520
-1.30681 -0.76685 -0.46520
-1.30576 -0.76485 -0.46462
-1.30550 -0.76332 -0.46449
-1.30692 -0.76277 -0.46479
-1.30752 -0.76174 -0.46479
-1.30808 -0.76068 -0.46496
-1.30785 -0.75917 -0.46467
-1.31093 -0.75957 -0.46555
-1.31484 -0.76045 -0.46673
-1.31465 -0.75896 -0.46627
-1.31276 -0.75649 -0.46540
-1.31170 -0.75450 -0.46481
-1.31396 -0.75442 -0.46540
-1.31372 -0.75291 -0.46511
-1.31348 -0.75139 -0.46482
-1.31407 -0.75036 -0.46482
-1.31471 -0.74935 -0.46466
-1.31442 -0.74781 -0.46454
-1.31584 -0.74724 -0.46483
-1.31893 -0.74762 -0.46572
-1.31952 -0.74658 -0.46572
-1.31765 -0.74415 -0.46468
-1.31819 -0.74309 -0.46485
-1.31961 -0.74252 -0.46514
-1.31936 -0.74101 -0.46485
-1.31744 -0.73856 -0.46397
-1.32053 -0.73892 -0.46486
-1.32445 -0.73974 -0.46604
-1.32336 -0.73777 -0.46545
-1.32222 -0.73577 -0.46503
-1.32280 -0.73473 -0.46503
-1.32338 -0.73368 -0.46504
-1.32392 -0.73261 -0.46521
-1.32203 -0.73020 -0.46416
-1.32427 -0.73008 -0.46475
-1.32652 -0.72996 -0.46534
-1.32710 -0.72891 -0.46535
-1.32683 -0.72741 -0.46506
-1.32992 -0.72774 -0.46594
-1.33217 -0.72760 -0.46653
-1.32939 -0.72472 -0.46536
-1.32665 -0.72187 -0.46402
-1.32973 -0.72219 -0.46491
-1.33446 -0.72339 -0.46654
-1.33251 -0.72098 -0.46566
-1.32723 -0.71677 -0.46345
-1.32611 -0.71481 -0.46286
-1.33261 -0.71696 -0.46476
-1.33570 -0.71727 -0.46564
-1.33538 -0.71575 -0.46552
-1.33261 -0.71292 -0.46418
-1.33228 -0.71139 -0.46405
-1.33541 -0.71172 -0.46477
-1.33766 -0.71157 -0.46536
-1.33906 -0.71096 -0.46566
-1.33957 -0.70989 -0.46583
-1.33760 -0.70750 -0.46495
-1.33561 -0.70510 -0.46407
-1.33612 -0.70403 -0.46424
-1.34006 -0.70476 -0.46542
-1.34061 -0.70371 -0.46542
-1.34031 -0.70221 -0.46513
-1.34336 -0.70246 -0.46618
-1.34565 -0.70232 -0.46660
-1.34451 -0.70037 -0.46602
-1.34166 -0.69755 -0.46485
-1.34306 -0.69694 -0.46514
-1.34360 -0.69588 -0.46515
-1.34415 -0.69483 -0.46515
-1.34384 -0.69333 -0.46486
-1.34443 -0.69230 -0.46470
-1.34413 -0.69081 -0.46441
-1.34377 -0.68929 -0.46428
-1.34431 -0.68824 -0.46428
-1.34911 -0.68935 -0.46576
-1.35225 -0.68962 -0.46647
-1.35104 -0.68766 -0.46606
-1.34902 -0.68531 -0.46518
-1.34956 -0.68424 -0.46518
-1.35095 -0.68361 -0.46548
-1.35234 -0.68298 -0.46577
-1.35202 -0.68149 -0.46548
-1.35255 -0.68043 -0.46549
-1.35223 -0.67894 -0.46520
-1.35105 -0.67702 -0.46461
-1.35073 -0.67553 -0.46432
-1.35378 -0.67572 -0.46537
-1.35683 -0.67592 -0.46642
-1.35826 -0.67530 -0.46655
-1.35879 -0.67423 -0.46655
-1.35585 -0.67144 -0.46555
-1.35380 -0.66911 -0.46467
-1.35433 -0.66804 -0.46467
-1.35399 -0.66656 -0.46438
-1.35542 -0.66594 -0.46451
-1.35851 -0.66613 -0.46540
-1.36161 -0.66633 -0.46628
-1.36128 -0.66484 -0.46599
-1.36180 -0.66377 -0.46599
-1.36064 -0.66188 -0.46524
-1.35858 -0.65956 -0.46437
-1.35910 -0.65849 -0.46437
-1.36396 -0.65953 -0.46568
-1.36620 -0.65929 -0.46627
-1.36495 -0.65736 -0.46585
-1.36379 -0.65548 -0.46510
-1.36516 -0.65482 -0.46539
-1.36481 -0.65334 -0.46510
-1.36528 -0.65224 -0.46527
-1.36584 -0.65119 -0.46511
-1.36721 -0.65053 -0.46541
-1.36508 -0.64820 -0.46469
-1.36473 -0.64672 -0.46440
-1.36696 -0.64647 -0.46499
-1.37002 -0.64659 -0.46604
-1.37052 -0.64552 -0.46604
-1.36930 -0.64363 -0.46546
-1.36980 -0.64255 -0.46546
-1.37204 -0.64228 -0.46605
-1.37067 -0.64033 -0.46596
-1.37131 -0.63932 -0.46547
-1.37441 -0.63945 -0.46636
-1.37487 -0.63835 -0.46653
-1.37368 -0.63649 -0.46577
-1.37331 -0.63501 -0.46548
-1.37554 -0.63473 -0.46608
-1.37430 -0.63285 -0.46549
-1.37480 -0.63177 -0.46549
-1.37447 -0.63031 -0.46504
-1.37318 -0.62841 -0.46462
-1.37367 -0.62733 -0.46462
-1.37682 -0.62746 -0.46534
-1.38075 -0.62794 -0.46669
-1.38037 -0.62646 -0.46639
-1.37829 -0.62422 -0.46535
-1.37791 -0.62274 -0.46506
-1.37927 -0.62205 -0.46536
-1.38146 -0.62173 -0.46611
-1.38282 -0.62103 -0.46641
-1.38243 -0.61955 -0.46612
-1.38112 -0.61766 -0.46570
-1.38161 -0.61658 -0.46570
-1.38384 -0.61627 -0.46629
-1.38432 -0.61518 -0.46630
-1.38481 -0.61409 -0.46630
-1.38616 -0.61339 -0.46659
-1.38402 -0.61114 -0.46572
-1.38358 -0.60964 -0.46559
-1.38231 -0.60778 -0.46500
-1.38545 -0.60787 -0.46573
-1.38856 -0.60793 -0.46661
-1.38728 -0.60607 -0.46603
-1.38688 -0.60460 -0.46573
-1.38999 -0.60465 -0.46662
-1.39221 -0.60432 -0.46721
-1.39093 -0.60246 -0.46663
-1.39145 -0.60139 -0.46646
-1.39197 -0.60031 -0.46630
-1.38976 -0.59806 -0.46559
-1.38940 -0.59661 -0.46513
-1.39338 -0.59703 -0.46631
-1.39561 -0.59668 -0.46690
-1.39344 -0.59446 -0.46602
-1.39127 -0.59224 -0.46514
-1.39261 -0.59152 -0.46544
-1.39479 -0.59115 -0.46620
-1.39525 -0.59005 -0.46620
-1.39395 -0.58821 -0.46561
-1.39534 -0.58750 -0.46575
-1.39752 -0.58713 -0.46650
-1.39793 -0.58600 -0.46667
-1.39751 -0.58454 -0.46638
-1.39797 -0.58344 -0.46638
-1.39666 -0.58160 -0.46580
-1.39623 -0.58014 -0.46551
-1.39845 -0.57977 -0.46610
-1.40156 -0.57976 -0.46698
-1.40025 -0.57793 -0.46640
-1.39893 -0.57610 -0.46581
-1.40027 -0.57537 -0.46611
-1.40337 -0.57535 -0.46699
-1.40294 -0.57389 -0.46670
-1.40073 -0.57170 -0.46582
-1.40207 -0.57096 -0.46612
-1.40517 -0.57093 -0.46701
-1.40744 -0.57056 -0.46743
-1.40611 -0.56874 -0.46685
-1.40385 -0.56654 -0.46613
-1.40346 -0.56510 -0.46568
-1.40302 -0.56364 -0.46539
-1.40434 -0.56289 -0.46568
-1.40479 -0.56178 -0.46569
-1.40607 -0.56102 -0.46615
-1.41006 -0.56132 -0.46733
-1.41139 -0.56057 -0.46763
-1.40916 -0.55840 -0.46675
-1.40960 -0.55729 -0.46675
-1.40915 -0.55583 -0.46646
-1.40869 -0.55437 -0.46617
-1.41086 -0.55394 -0.46692
-1.41129 -0.55283 -0.46693
-1.41262 -0.55207 -0.46722
-1.41305 -0.55096 -0.46723
-1.41437 -0.55019 -0.46753
-1.41480 -0.54908 -0.46753
-1.41613 -0.54831 -0.46782
-1.41745 -0.54754 -0.46812
-1.41788 -0.54643 -0.46813
-1.41652 -0.54463 -0.46754
-1.41606 -0.54317 -0.46725
-1.41916 -0.54308 -0.46814
-1.42320 -0.54334 -0.46915
-1.42095 -0.54120 -0.46827
-1.41870 -0.53907 -0.46739
-1.42091 -0.53863 -0.46798
-1.42133 -0.53751 -0.46798
-1.42107 -0.52467 -0.46638
-1.42233 -0.52386 -0.46684
-1.42544 -0.52372 -0.46773
-1.43491 -0.50292 -0.46837
-1.43260 -0.50085 -0.46749
-1.46858 -0.35828 -0.46650
-1.18746 -0.94861 -0.46711
-1.19833 -0.92685 -0.46603
-1.19830 -0.92532 -0.46574
-1.20130 -0.92613 -0.46663
-1.20632 -0.91499 -0.46544
-1.20632 -0.91350 -0.46499
-1.21004 -0.91482 -0.46633
-1.21152 -0.91445 -0.46663
-1.20991 -0.91174 -0.46592
-1.20914 -0.90967 -0.46517
-1.20985 -0.90872 -0.46517
-1.20903 -0.90662 -0.46459
-1.21047 -0.90621 -0.46505
-1.21194 -0.90584 -0.46534
-1.21338 -0.90543 -0.46581
-1.21332 -0.90390 -0.46551
-1.21403 -0.90295 -0.46552
-1.21704 -0.90370 -0.46640
-1.21852 -0.90331 -0.46670
-1.21615 -0.90008 -0.46553
-1.21455 -0.89742 -0.46465
-1.22510 -0.88303 -0.46453
-1.24918 -0.85188 -0.46538
-1.25064 -0.85143 -0.46568
-1.25131 -0.85044 -0.46568
-1.25352 -0.85050 -0.46644
-1.25257 -0.84841 -0.46602
-1.25094 -0.84587 -0.46481
-1.25319 -0.84595 -0.46540
-1.25545 -0.84603 -0.46599
-1.25532 -0.84450 -0.46570
-1.25356 -0.84189 -0.46498
-1.25427 -0.84093 -0.46482
-1.25731 -0.84153 -0.46571
-1.25956 -0.84160 -0.46630
-1.25943 -0.84008 -0.46601
-1.25691 -0.83696 -0.46483
-1.25761 -0.83600 -0.46467
-1.25982 -0.83603 -0.46543
-1.26052 -0.83507 -0.46527
-1.26038 -0.83354 -0.46498
-1.26263 -0.83360 -0.46557
-1.26325 -0.83258 -0.46574
-1.26151 -0.83000 -0.46486
-1.26216 -0.82901 -0.46486
-1.26361 -0.82854 -0.46515
-1.26507 -0.82806 -0.46545
-1.26568 -0.82703 -0.46562
-1.26633 -0.82604 -0.46562
-1.26542 -0.82402 -0.46487
-1.26763 -0.82404 -0.46563
-1.27068 -0.82460 -0.46652
-1.27129 -0.82356 -0.46668
-1.27033 -0.82152 -0.46610
-1.27017 -0.82000 -0.46581
-1.26926 -0.81799 -0.46506
-1.26905 -0.81644 -0.46493
-1.27054 -0.81599 -0.46506
-1.27119 -0.81498 -0.46507
-1.27263 -0.81450 -0.46536
-1.27489 -0.81452 -0.46595
-1.27714 -0.81454 -0.46655
-1.27617 -0.81251 -0.46596
-1.27443 -0.80999 -0.46492
-1.27507 -0.80898 -0.46492
-1.27813 -0.80951 -0.46580
-1.27881 -0.80853 -0.46564
-1.27859 -0.80698 -0.46552
-1.27765 -0.80498 -0.46477
-1.27748 -0.80346 -0.46448
-1.27892 -0.80296 -0.46477
-1.28198 -0.80348 -0.46566
-1.28180 -0.80196 -0.46537
-1.27919 -0.79892 -0.46419
-1.27978 -0.79788 -0.46436
-1.28203 -0.79788 -0.46495
-1.28266 -0.79687 -0.46496
-1.28572 -0.79737 -0.46584
-1.28631 -0.79633 -0.46601
-1.28450 -0.79380 -0.46513
-1.28349 -0.79179 -0.46454
-1.28652 -0.79225 -0.46559
-1.28881 -0.79226 -0.46602
-1.28862 -0.79075 -0.46573
-1.28843 -0.78923 -0.46544
-1.28986 -0.78871 -0.46574
-1.28885 -0.78670 -0.46515
-1.28947 -0.78568 -0.46515
-1.29009 -0.78466 -0.46515
-1.28908 -0.78265 -0.46457
-1.28647 -0.77968 -0.46323
-1.28871 -0.77965 -0.46382
-1.29260 -0.78061 -0.46500
-1.29240 -0.77910 -0.46471
-1.29055 -0.77660 -0.46383
-1.29198 -0.77607 -0.46413
-1.29505 -0.77653 -0.46502
-1.29485 -0.77501 -0.46472
-1.29459 -0.77348 -0.46460
-1.29684 -0.77343 -0.46519
-1.29832 -0.77292 -0.46532
-1.29975 -0.77239 -0.46562
-1.30118 -0.77185 -0.46592
-1.30010 -0.76982 -0.46549
-1.29988 -0.76831 -0.46520
-1.30048 -0.76728 -0.46521
-1.30104 -0.76623 -0.46537
-1.30165 -0.76521 -0.46538
-1.30229 -0.76420 -0.46522
-1.30368 -0.76363 -0.46568
-1.30345 -0.76212 -0.46539
-1.30323 -0.76061 -0.46509
-1.30135 -0.75814 -0.46421
-1.30360 -0.75807 -0.46481
-1.30750 -0.75896 -0.46599
-1.30897 -0.75843 -0.46612
-1.30708 -0.75597 -0.46524
-1.30520 -0.75350 -0.46436
-1.30827 -0.75390 -0.46525
-1.31135 -0.75430 -0.46613
-1.31195 -0.75326 -0.46614
-1.31092 -0.75130 -0.46538
-1.31230 -0.75072 -0.46585
-1.31294 -0.74971 -0.46569
-1.31191 -0.74775 -0.46493
-1.31167 -0.74624 -0.46464
-1.31138 -0.74471 -0.46452
-1.31030 -0.74273 -0.46393
-1.31338 -0.74311 -0.46482
-1.31730 -0.74395 -0.46600
-1.31788 -0.74291 -0.46600
-1.31847 -0.74187 -0.46600
-1.31738 -0.73990 -0.46542
-1.31538 -0.73740 -0.46487
-1.31429 -0.73543 -0.46428
-1.31821 -0.73626 -0.46546
-1.32129 -0.73662 -0.46635
-1.32187 -0.73557 -0.46635
-1.31902 -0.73262 -0.46551
-1.31718 -0.73024 -0.46430
-1.31859 -0.72966 -0.46459
-1.32083 -0.72955 -0.46519
-1.31894 -0.72715 -0.46414
-1.31784 -0.72518 -0.46355
-1.32004 -0.72504 -0.46431
-1.32396 -0.72583 -0.46549
-1.32374 -0.72435 -0.46504
-1.32347 -0.72285 -0.46474
-1.32488 -0.72226 -0.46504
-1.32629 -0.72167 -0.46534
-1.32690 -0.72065 -0.46518
-1.32742 -0.71958 -0.46535
-1.32799 -0.71853 -0.46535
-1.32519 -0.71567 -0.46417
-1.32996 -0.71689 -0.46565
-1.33137 -0.71629 -0.46595
-1.32940 -0.71389 -0.46507
-1.32912 -0.71239 -0.46477
-1.33137 -0.71225 -0.46537
-1.33099 -0.71071 -0.46540
-1.32902 -0.70831 -0.46452
-1.32962 -0.70729 -0.46436
-1.33270 -0.70759 -0.46525
-1.33406 -0.70697 -0.46571
-1.33297 -0.70505 -0.46496
-1.33179 -0.70308 -0.46454
-1.33403 -0.70293 -0.46513
-1.33627 -0.70277 -0.46572
-1.33508 -0.70081 -0.46530
-1.33737 -0.70067 -0.46573
-1.33961 -0.70050 -0.46632
-1.33851 -0.69859 -0.46557
-1.33737 -0.69665 -0.46498
-1.33876 -0.69604 -0.46528
-1.34015 -0.69543 -0.46558
-1.34159 -0.69484 -0.46571
-1.34294 -0.69420 -0.46618
-1.34353 -0.69317 -0.46601
-1.34322 -0.69168 -0.46572
-1.34291 -0.69018 -0.46543
-1.34516 -0.69000 -0.46602
-1.34570 -0.68894 -0.46603
-1.34458 -0.68704 -0.46527
-1.34507 -0.68596 -0.46544
-1.34731 -0.68577 -0.46603
-1.34700 -0.68428 -0.46574
-1.34583 -0.68236 -0.46516
-1.34637 -0.68130 -0.46516
-1.34775 -0.68067 -0.46546
-1.34658 -0.67875 -0.46487
-1.34536 -0.67681 -0.46445
-1.34589 -0.67575 -0.46445
-1.34723 -0.67510 -0.46491
-1.34947 -0.67490 -0.46551
-1.35000 -0.67384 -0.46551
-1.34967 -0.67235 -0.46522
-1.35024 -0.67131 -0.46506
-1.35419 -0.67195 -0.46624
-1.35643 -0.67173 -0.46683
-1.35610 -0.67024 -0.46654
-1.35491 -0.66833 -0.46595
-1.35458 -0.66684 -0.46566
-1.35424 -0.66536 -0.46537
-1.35219 -0.66303 -0.46449
-1.35185 -0.66155 -0.46420
-1.35323 -0.66091 -0.46449
-1.35890 -0.66236 -0.46626
-1.35942 -0.66129 -0.46627
-1.35654 -0.65857 -0.46493
-1.35534 -0.65667 -0.46434
-1.35581 -0.65558 -0.46451
-1.35804 -0.65535 -0.46510
-1.36028 -0.65511 -0.46569
-1.36251 -0.65487 -0.46629
-1.36130 -0.65297 -0.46570
-1.35918 -0.65064 -0.46498
-1.35883 -0.64916 -0.46469
-1.35939 -0.64812 -0.46453
-1.35899 -0.64662 -0.46440
-1.35949 -0.64555 -0.46441
-1.36086 -0.64489 -0.46470
-1.36482 -0.64545 -0.46589
-1.36528 -0.64436 -0.46605
-1.36752 -0.64410 -0.46665
-1.36889 -0.64343 -0.46694
-1.36852 -0.64195 -0.46665
-1.36730 -0.64006 -0.46607
-1.36866 -0.63939 -0.46636
-1.36916 -0.63832 -0.46637
-1.36884 -0.63686 -0.46591
-1.36939 -0.63581 -0.46575
-1.37075 -0.63513 -0.46605
-1.36952 -0.63325 -0.46546
-1.37262 -0.63338 -0.46635
-1.37572 -0.63350 -0.46723
-1.37448 -0.63162 -0.46665
-1.37067 -0.62857 -0.46501
-1.36943 -0.62670 -0.46443
-1.37253 -0.62681 -0.46531
-1.37476 -0.62652 -0.46591
-1.37438 -0.62505 -0.46561
-1.37313 -0.62318 -0.46503
-1.37188 -0.62131 -0.46444
-1.37498 -0.62141 -0.46533
-1.37803 -0.62149 -0.46638
-1.37852 -0.62040 -0.46638
-1.37721 -0.61852 -0.46596
-1.37944 -0.61821 -0.46655
-1.38080 -0.61752 -0.46685
-1.37867 -0.61526 -0.46597
-1.37828 -0.61379 -0.46568
-1.37793 -0.61234 -0.46522
-1.37837 -0.61123 -0.46539
-1.37967 -0.61052 -0.46585
-1.38102 -0.60981 -0.46615
-1.38155 -0.60875 -0.46599
-1.38115 -0.60728 -0.46570
-1.38338 -0.60696 -0.46629
-1.38561 -0.60664 -0.46688
-1.38608 -0.60555 -0.46688
-1.38831 -0.60522 -0.46748
-1.38878 -0.60413 -0.46748
-1.38667 -0.60191 -0.46643
-1.38539 -0.60006 -0.46585
-1.38674 -0.59935 -0.46615
-1.38633 -0.59788 -0.46585
-1.38680 -0.59679 -0.46586
-1.38986 -0.59681 -0.46691
-1.39120 -0.59609 -0.46721
-1.38996 -0.59427 -0.46646
-1.38862 -0.59240 -0.46603
-1.38992 -0.59166 -0.46650
-1.39214 -0.59132 -0.46709
-1.39265 -0.59024 -0.46693
-1.39131 -0.58838 -0.46651
-1.39089 -0.58692 -0.46621
-1.39047 -0.58545 -0.46592
-1.38829 -0.58325 -0.46504
-1.39051 -0.58289 -0.46563
-1.39273 -0.58254 -0.46623
-1.39495 -0.58218 -0.46682
-1.39624 -0.58143 -0.46728
-1.39674 -0.58035 -0.46712
-1.39631 -0.57888 -0.46683
-1.39677 -0.57778 -0.46683
-1.39634 -0.57632 -0.46654
-1.39767 -0.57559 -0.46684
-1.39906 -0.57487 -0.46697
-1.39864 -0.57084 -0.46639
-1.40085 -0.57046 -0.46698
-1.44614 -0.42251 -0.46593
-1.44739 -0.42164 -0.46623
-1.45226 -0.42182 -0.46787
-1.46262 -0.35682 -0.46604
-1.14396 -0.98519 -0.46601
-1.14542 -0.98487 -0.46647
-1.16080 -0.96832 -0.46649
-1.15715 -0.96374 -0.46472
-1.15791 -0.96283 -0.46473
-1.17663 -0.94755 -0.46610
-1.20427 -0.91194 -0.46654
-1.20117 -0.90812 -0.46507
-1.20188 -0.90717 -0.46507
-1.20484 -0.90792 -0.46613
-1.20403 -0.90583 -0.46554
-1.20397 -0.90431 -0.46525
-1.20468 -0.90336 -0.46525
-1.20768 -0.90413 -0.46614
-1.20992 -0.90433 -0.46673
-1.21140 -0.90395 -0.46703
-1.21057 -0.90185 -0.46644
-1.20592 -0.89691 -0.46438
-1.20819 -0.89713 -0.46481
-1.20890 -0.89618 -0.46481
-1.20883 -0.89467 -0.46452
-1.20880 -0.89318 -0.46406
-1.22085 -0.88144 -0.46515
-1.21999 -0.87936 -0.46457
-1.22224 -0.87951 -0.46516
-1.23595 -0.86011 -0.46522
-1.23427 -0.85749 -0.46434
-1.24394 -0.84830 -0.46559
-1.24623 -0.84842 -0.46601
-1.25010 -0.84962 -0.46703
-1.24919 -0.84756 -0.46645
-1.24902 -0.84601 -0.46632
-1.24969 -0.84502 -0.46632
-1.24961 -0.84353 -0.46586
-1.24869 -0.84147 -0.46528
-1.24935 -0.84049 -0.46528
-1.25239 -0.84110 -0.46617
-1.25226 -0.83958 -0.46588
-1.25133 -0.83753 -0.46529
-1.25203 -0.83657 -0.46513
-1.25269 -0.83558 -0.46513
-1.25335 -0.83459 -0.46514
-1.25401 -0.83360 -0.46514
-1.25621 -0.83364 -0.46590
-1.25612 -0.83215 -0.46544
-1.25593 -0.83060 -0.46531
-1.25977 -0.83171 -0.46649
-1.26362 -0.83282 -0.46768
-1.26268 -0.83078 -0.46709
-1.25770 -0.82608 -0.46519
-1.25675 -0.82404 -0.46460
-1.26140 -0.82566 -0.46608
-1.26365 -0.82571 -0.46668
-1.26266 -0.82364 -0.46625
-1.26331 -0.82265 -0.46626
-1.26239 -0.82064 -0.46551
-1.26304 -0.81964 -0.46551
-1.26369 -0.81864 -0.46551
-1.26433 -0.81764 -0.46551
-1.26497 -0.81664 -0.46552
-1.26562 -0.81565 -0.46552
-1.26630 -0.81468 -0.46536
-1.26694 -0.81368 -0.46536
-1.26678 -0.81216 -0.46507
-1.26822 -0.81167 -0.46537
-1.27208 -0.81273 -0.46655
-1.27272 -0.81173 -0.46655
-1.27332 -0.81069 -0.46672
-1.27400 -0.80972 -0.46656
-1.27464 -0.80871 -0.46656
-1.27285 -0.80617 -0.46568
-1.27026 -0.80312 -0.46450
-1.27251 -0.80314 -0.46510
-1.27552 -0.80364 -0.46615
-1.27454 -0.80161 -0.46556
-1.27436 -0.80010 -0.46527
-1.27737 -0.80059 -0.46632
-1.27882 -0.80009 -0.46662
-1.27701 -0.79756 -0.46574
-1.27683 -0.79605 -0.46545
-1.27665 -0.79453 -0.46515
-1.27646 -0.79302 -0.46486
-1.27790 -0.79252 -0.46516
-1.28010 -0.79249 -0.46592
-1.27991 -0.79097 -0.46563
-1.27895 -0.78899 -0.46487
-1.27957 -0.78798 -0.46488
-1.28264 -0.78847 -0.46576
-1.28407 -0.78795 -0.46606
-1.28388 -0.78644 -0.46577
-1.28454 -0.78546 -0.46561
-1.28516 -0.78444 -0.46561
-1.28582 -0.78345 -0.46545
-1.28562 -0.78194 -0.46516
-1.28460 -0.77994 -0.46457
-1.28522 -0.77892 -0.46458
-1.28828 -0.77939 -0.46546
-1.28971 -0.77887 -0.46576
-1.28951 -0.77736 -0.46547
-1.29012 -0.77634 -0.46547
-1.29073 -0.77532 -0.46548
-1.28970 -0.77332 -0.46489
-1.28785 -0.77083 -0.46401
-1.29010 -0.77079 -0.46460
-1.29641 -0.77317 -0.46683
-1.29615 -0.77163 -0.46671
-1.29676 -0.77061 -0.46671
-1.29736 -0.76959 -0.46671
-1.29550 -0.76710 -0.46583
-1.29446 -0.76511 -0.46524
-1.29502 -0.76406 -0.46541
-1.29567 -0.76306 -0.46525
-1.29627 -0.76204 -0.46525
-1.29852 -0.76199 -0.46584
-1.29916 -0.76099 -0.46568
-1.29971 -0.75994 -0.46585
-1.30031 -0.75891 -0.46585
-1.30091 -0.75788 -0.46586
-1.29907 -0.75544 -0.46481
-1.30132 -0.75538 -0.46540
-1.30439 -0.75579 -0.46629
-1.30416 -0.75428 -0.46600
-1.30145 -0.75134 -0.46482
-1.30204 -0.75031 -0.46482
-1.30267 -0.74931 -0.46466
-1.30575 -0.74971 -0.46555
-1.30629 -0.74865 -0.46572
-1.30688 -0.74762 -0.46572
-1.30494 -0.74514 -0.46500
-1.30636 -0.74458 -0.46530
-1.31026 -0.74544 -0.46649
-1.30919 -0.74347 -0.46590
-1.30977 -0.74243 -0.46590
-1.31285 -0.74281 -0.46679
-1.31422 -0.74222 -0.46725
-1.31398 -0.74071 -0.46696
-1.31290 -0.73874 -0.46637
-1.31264 -0.73723 -0.46608
-1.31322 -0.73620 -0.46608
-1.31380 -0.73516 -0.46609
-1.31438 -0.73412 -0.46609
-1.31329 -0.73216 -0.46550
-1.31470 -0.73158 -0.46580
-1.31695 -0.73147 -0.46639
-1.31669 -0.72997 -0.46610
-1.31647 -0.72849 -0.46564
-1.31621 -0.72699 -0.46535
-1.31599 -0.72552 -0.46490
-1.31656 -0.72448 -0.46490
-1.31880 -0.72436 -0.46549
-1.32021 -0.72378 -0.46579
-1.32078 -0.72274 -0.46579
-1.32056 -0.72126 -0.46534
-1.32196 -0.72067 -0.46564
-1.32421 -0.72054 -0.46623
-1.32053 -0.71719 -0.46492
-1.32450 -0.71800 -0.46594
-1.32670 -0.71784 -0.46670
-1.32223 -0.71407 -0.46493
-1.31942 -0.71121 -0.46375
-1.32335 -0.71198 -0.46493
-1.32639 -0.71227 -0.46599
-1.32695 -0.71123 -0.46599
-1.32498 -0.70883 -0.46511
-1.32464 -0.70732 -0.46498
-1.32604 -0.70673 -0.46528
-1.32913 -0.70703 -0.46617
-1.33052 -0.70643 -0.46647
-1.33277 -0.70628 -0.46706
-1.33332 -0.70523 -0.46706
-1.33303 -0.70374 -0.46677
-1.33278 -0.70227 -0.46631
-1.33248 -0.70078 -0.46602
-1.33219 -0.69929 -0.46573
-1.33273 -0.69824 -0.46573
-1.33413 -0.69764 -0.46603
-1.33472 -0.69661 -0.46587
-1.33696 -0.69644 -0.46646
-1.33751 -0.69539 -0.46647
-1.33546 -0.69300 -0.46575
-1.33601 -0.69195 -0.46575
-1.33824 -0.69178 -0.46634
-1.33624 -0.68941 -0.46546
-1.33593 -0.68792 -0.46517
-1.33817 -0.68775 -0.46576
-1.33956 -0.68713 -0.46606
-1.34010 -0.68608 -0.46606
-1.34063 -0.68502 -0.46607
-1.34032 -0.68354 -0.46577
-1.34171 -0.68292 -0.46607
-1.34139 -0.68143 -0.46578
-1.33762 -0.67819 -0.46447
-1.33896 -0.67755 -0.46493
-1.34550 -0.67953 -0.46684
-1.34689 -0.67891 -0.46714
-1.34315 -0.67570 -0.46566
-1.34283 -0.67422 -0.46537
-1.34587 -0.67442 -0.46642
-1.34901 -0.67467 -0.46715
-1.34954 -0.67361 -0.46715
-1.34836 -0.67170 -0.46657
-1.34632 -0.66936 -0.46568
-1.34599 -0.66788 -0.46539
-1.34651 -0.66682 -0.46539
-1.34965 -0.66705 -0.46612
-1.34931 -0.66557 -0.46582
-1.34812 -0.66367 -0.46524
-1.35040 -0.66347 -0.46567
-1.35092 -0.66241 -0.46567
-1.34968 -0.66049 -0.46525
-1.35196 -0.66029 -0.46568
-1.35415 -0.66004 -0.46643
-1.35295 -0.65814 -0.46585
-1.35174 -0.65624 -0.46526
-1.35398 -0.65601 -0.46585
-1.35707 -0.65619 -0.46674
-1.35759 -0.65513 -0.46675
-1.35810 -0.65406 -0.46675
-1.35943 -0.65339 -0.46721
-1.35994 -0.65232 -0.46721
-1.35873 -0.65042 -0.46663
-1.35747 -0.64851 -0.46620
-1.35888 -0.64788 -0.46634
-1.36112 -0.64763 -0.46693
-1.36249 -0.64697 -0.46723
-1.36122 -0.64506 -0.46681
-1.36086 -0.64358 -0.46651
-1.36146 -0.64255 -0.46619
-1.36192 -0.64146 -0.46635
-1.35983 -0.63917 -0.46547
-1.35951 -0.63772 -0.46501
-1.36342 -0.63825 -0.46636
-1.36565 -0.63799 -0.46696
-1.36360 -0.63572 -0.46591
-1.36232 -0.63383 -0.46548
-1.36286 -0.63278 -0.46532
-1.36423 -0.63211 -0.46562
-1.36559 -0.63144 -0.46592
-1.36869 -0.63156 -0.46681
-1.37005 -0.63089 -0.46711
-1.36876 -0.62899 -0.46669
-1.36838 -0.62752 -0.46639
-1.36974 -0.62684 -0.46669
-1.37197 -0.62656 -0.46729
-1.37160 -0.62508 -0.46699
-1.36943 -0.62280 -0.46627
-1.36818 -0.62093 -0.46568
-1.37041 -0.62064 -0.46628
-1.41709 -0.49291 -0.46577
-1.41567 -0.49117 -0.46518
-1.42514 -0.46940 -0.46550
-1.42460 -0.46797 -0.46521
-1.42764 -0.46773 -0.46626
-1.43305 -0.44459 -0.46557
-1.43522 -0.44402 -0.46616
-1.44565 -0.42237 -0.46757
-1.44502 -0.42095 -0.46744
-1.15527 -0.96372 -0.46607
-1.15456 -0.96159 -0.46548
-1.15605 -0.96129 -0.46578
-1.16121 -0.96404 -0.46756
-1.16727 -0.94153 -0.46465
-1.16504 -0.93821 -0.46347
-1.16801 -0.93909 -0.46436
-1.19933 -0.90821 -0.46625
-1.19848 -0.90608 -0.46582
-1.19618 -0.90287 -0.46448
-1.19841 -0.90308 -0.46507
-1.20065 -0.90329 -0.46567
-1.20059 -0.90177 -0.46537
-1.19901 -0.89911 -0.46449
-1.19971 -0.89816 -0.46449
-1.20271 -0.89894 -0.46538
-1.20265 -0.89742 -0.46509
-1.20340 -0.89650 -0.46493
-1.20559 -0.89667 -0.46569
-1.20629 -0.89572 -0.46569
-1.20700 -0.89477 -0.46570
-1.20846 -0.89439 -0.46599
-1.20993 -0.89401 -0.46629
-1.20833 -0.89136 -0.46541
-1.20668 -0.88868 -0.46469
-1.21966 -0.88058 -0.46650
-1.22272 -0.88132 -0.46723
-1.23329 -0.85970 -0.46627
-1.23004 -0.85600 -0.46479
-1.23229 -0.85611 -0.46538
-1.24033 -0.84440 -0.46542
-1.24182 -0.84399 -0.46555
-1.24565 -0.84516 -0.46674
-1.24785 -0.84522 -0.46750
-1.24839 -0.84271 -0.46721
-1.24589 -0.83959 -0.46603
-1.24576 -0.83807 -0.46574
-1.24875 -0.83866 -0.46679
-1.24787 -0.83664 -0.46604
-1.24853 -0.83565 -0.46604
-1.25391 -0.83782 -0.46799
-1.25377 -0.83630 -0.46769
-1.25046 -0.83266 -0.46621
-1.25107 -0.83165 -0.46638
-1.25495 -0.83280 -0.46741
-1.25401 -0.83076 -0.46682
-1.25148 -0.82766 -0.46563
-1.25373 -0.82772 -0.46623
-1.25677 -0.82831 -0.46712
-1.25583 -0.82627 -0.46653
-1.25572 -0.82478 -0.46608
-1.25717 -0.82431 -0.46637
-1.26022 -0.82489 -0.46727
-1.26007 -0.82337 -0.46697
-1.25836 -0.82084 -0.46592
-1.25821 -0.81932 -0.46563
-1.25965 -0.81885 -0.46593
-1.26030 -0.81786 -0.46593
-1.26254 -0.81790 -0.46653
-1.26158 -0.81587 -0.46594
-1.26223 -0.81487 -0.46594
-1.26287 -0.81387 -0.46594
-1.26351 -0.81288 -0.46595
-1.26415 -0.81188 -0.46595
-1.26881 -0.81346 -0.46743
-1.26538 -0.80986 -0.46612
-1.26280 -0.80680 -0.46494
-1.26505 -0.80683 -0.46553
-1.26806 -0.80734 -0.46659
-1.26869 -0.80634 -0.46659
-1.26852 -0.80483 -0.46630
-1.26915 -0.80383 -0.46630
-1.26894 -0.80229 -0.46617
-1.26961 -0.80131 -0.46601
-1.27105 -0.80082 -0.46631
-1.27168 -0.79982 -0.46631
-1.27069 -0.79780 -0.46572
-1.27051 -0.79629 -0.46543
-1.27357 -0.79680 -0.46632
-1.27420 -0.79580 -0.46632
-1.27243 -0.79330 -0.46528
-1.27225 -0.79179 -0.46498
-1.27612 -0.79281 -0.46617
-1.28080 -0.79431 -0.46766
-1.28061 -0.79280 -0.46736
-1.28042 -0.79129 -0.46707
-1.28267 -0.79128 -0.46766
-1.28167 -0.78927 -0.46708
-1.27904 -0.78625 -0.46589
-1.28291 -0.78724 -0.46708
-1.28349 -0.78620 -0.46725
-1.28333 -0.78472 -0.46679
-1.28472 -0.78418 -0.46725
-1.28616 -0.78366 -0.46755
-1.28433 -0.78116 -0.46667
-1.28086 -0.77766 -0.46519
-1.28225 -0.77712 -0.46565
-1.28535 -0.77762 -0.46638
-1.28756 -0.77756 -0.46714
-1.28817 -0.77655 -0.46714
-1.28882 -0.77556 -0.46698
-1.28693 -0.77304 -0.46626
-1.28508 -0.77055 -0.46537
-1.28651 -0.77003 -0.46567
-1.28876 -0.76999 -0.46627
-1.28936 -0.76897 -0.46627
-1.28833 -0.76698 -0.46568
-1.28893 -0.76596 -0.46568
-1.29204 -0.76643 -0.46641
-1.29429 -0.76638 -0.46701
-1.29329 -0.76442 -0.46625
-1.29389 -0.76340 -0.46626
-1.29449 -0.76237 -0.46626
-1.29509 -0.76135 -0.46626
-1.29487 -0.75985 -0.46597
-1.29469 -0.75837 -0.46551
-1.29359 -0.75636 -0.46509
-1.29419 -0.75533 -0.46509
-1.29808 -0.75624 -0.46628
-1.30116 -0.75665 -0.46717
-1.30340 -0.75658 -0.46777
-1.30235 -0.75460 -0.46718
-1.30042 -0.75211 -0.46646
-1.30101 -0.75108 -0.46646
-1.30325 -0.75101 -0.46705
-1.30467 -0.75046 -0.46735
-1.30273 -0.74798 -0.46663
-1.30337 -0.74697 -0.46647
-1.30147 -0.74452 -0.46558
-1.30123 -0.74302 -0.46529
-1.30343 -0.74291 -0.46605
-1.30567 -0.74283 -0.46664
-1.30626 -0.74180 -0.46665
-1.30688 -0.74079 -0.46649
-1.30580 -0.73882 -0.46590
-1.30555 -0.73732 -0.46560
-1.30530 -0.73582 -0.46531
-1.30343 -0.73341 -0.46426
-1.30646 -0.73376 -0.46532
-1.31037 -0.73460 -0.46651
-1.31266 -0.73452 -0.46694
-1.31324 -0.73348 -0.46694
-1.31294 -0.73196 -0.46681
-1.31184 -0.72999 -0.46622
-1.31075 -0.72803 -0.46563
-1.31216 -0.72746 -0.46593
-1.31273 -0.72642 -0.46593
-1.31163 -0.72446 -0.46534
-1.31136 -0.72297 -0.46505
-1.31440 -0.72329 -0.46611
-1.31669 -0.72319 -0.46654
-1.31721 -0.72213 -0.46670
-1.31443 -0.71926 -0.46552
-1.31667 -0.71913 -0.46612
-1.32143 -0.72038 -0.46760
-1.32447 -0.72068 -0.46866
-1.32252 -0.71827 -0.46777
-1.32140 -0.71632 -0.46718
-1.32365 -0.71618 -0.46778
-1.32421 -0.71514 -0.46778
-1.32230 -0.71276 -0.46673
-1.32202 -0.71126 -0.46644
-1.32009 -0.70889 -0.46539
-1.32061 -0.70783 -0.46555
-1.32369 -0.70814 -0.46645
-1.32593 -0.70800 -0.46704
-1.32315 -0.70519 -0.46570
