-1.42665 -0.56014 -0.39198
-1.42528 -0.55831 -0.39149
-1.42572 -0.55719 -0.39149
-1.42616 -0.55607 -0.39150
-1.42655 -0.55493 -0.39166
-1.42699 -0.55381 -0.39166
-1.42829 -0.55302 -0.39208
-1.42786 -0.55156 -0.39167
-1.42554 -0.54938 -0.39109
-1.42510 -0.54792 -0.39069
-1.42730 -0.54748 -0.39135
-1.42954 -0.54705 -0.39185
-1.42997 -0.54593 -0.39185
-1.42949 -0.54446 -0.39160
-1.43083 -0.54368 -0.39186
-1.43129 -0.54257 -0.39170
-1.42991 -0.54075 -0.39120
-1.42852 -0.53895 -0.39071
-1.42985 -0.53816 -0.39096
-1.43208 -0.53772 -0.39146
-1.43345 -0.53695 -0.39155
-1.43383 -0.53580 -0.39171
-1.43425 -0.53468 -0.39171
-1.43467 -0.53355 -0.39172
-1.43327 -0.53174 -0.39122
-1.43278 -0.53028 -0.39098
-1.43411 -0.52948 -0.39123
-1.43453 -0.52835 -0.39123
-1.43585 -0.52755 -0.39149
-1.43627 -0.52642 -0.39149
-1.43577 -0.52495 -0.39124
-1.43618 -0.52382 -0.39125
-1.43747 -0.52300 -0.39166
-1.43788 -0.52187 -0.39166
-1.43647 -0.52007 -0.39117
-1.43688 -0.51894 -0.39117
-1.43816 -0.51812 -0.39159
-1.43856 -0.51698 -0.39159
-1.43897 -0.51585 -0.39159
-1.44120 -0.51536 -0.39209
-1.44434 -0.51520 -0.39284
-1.44384 -0.51374 -0.39259
-1.44242 -0.51195 -0.39210
-1.44190 -0.51049 -0.39186
-1.44326 -0.50969 -0.39194
-1.44362 -0.50854 -0.39211
-1.44406 -0.50741 -0.39195
-1.44446 -0.50627 -0.39195
-1.44486 -0.50513 -0.39195
-1.44529 -0.50400 -0.39179
-1.44569 -0.50286 -0.39180
-1.44609 -0.50172 -0.39180
-1.44648 -0.50058 -0.39180
-1.44688 -0.49944 -0.39181
-1.44731 -0.49831 -0.39165
-1.44949 -0.49778 -0.39231
-1.44988 -0.49664 -0.39231
-1.44936 -0.49518 -0.39206
-1.44883 -0.49373 -0.39182
-1.44830 -0.49227 -0.39158
-1.45419 -0.49300 -0.39307
-1.74442 -0.50966 -0.46542
-1.74819 -0.48541 -0.46512
-1.75125 -0.46697 -0.46444
-1.75817 -0.46733 -0.46618
-1.76228 -0.46694 -0.46718
-1.76073 -0.46504 -0.46687
-1.75740 -0.46268 -0.46569
-1.75682 -0.46104 -0.46544
-1.75812 -0.45990 -0.46569
-1.75938 -0.45875 -0.46613
-1.75974 -0.45736 -0.46613
-1.76010 -0.45597 -0.46613
-1.75957 -0.45435 -0.46569
-1.75805 -0.45248 -0.46520
-1.75742 -0.45084 -0.46514
-1.38139 -1.18588 -0.46487
-1.38162 -1.18419 -0.46443
-1.43035 -1.12618 -0.46525
-1.42899 -1.12329 -0.46432
-1.43059 -1.12273 -0.46476
-1.43452 -1.12400 -0.46576
-1.43540 -1.12287 -0.46576
-1.43476 -1.12055 -0.46527
-1.43720 -1.12065 -0.46557
-1.43732 -1.11892 -0.46533
-1.43586 -1.11598 -0.46478
-1.43601 -1.11429 -0.46435
-1.43765 -1.11375 -0.46460
-1.43546 -1.11025 -0.46361
-1.43483 -1.10797 -0.46292
-1.44779 -1.10532 -0.46537
-1.44788 -1.10360 -0.46513
-1.45921 -1.08352 -0.46483
-1.46088 -1.08298 -0.46488
-1.47452 -1.06282 -0.46431
-1.47139 -1.05879 -0.46327
-1.47297 -1.05817 -0.46371
-1.48618 -1.04297 -0.46406
-1.48462 -1.04013 -0.46332
-1.48465 -1.03840 -0.46308
-1.48860 -1.03942 -0.46427
-1.53556 -0.97766 -0.46569
-1.53793 -0.97746 -0.46639
-1.55088 -0.95674 -0.46645
-1.56591 -0.93390 -0.46657
-1.57076 -0.91012 -0.46503
-1.56897 -0.90743 -0.46429
-1.57056 -0.90670 -0.46434
-1.60050 -0.89725 -0.46966
-1.52935 -0.85577 -0.44859
-1.36291 -0.75841 -0.39925
-1.35754 -0.75402 -0.39768
-1.35898 -0.75342 -0.39793
-1.36042 -0.75281 -0.39818
-1.36186 -0.75221 -0.39843
-1.36245 -0.75113 -0.39844
-1.36131 -0.74910 -0.39811
-1.36105 -0.74756 -0.39787
-1.36334 -0.74742 -0.39836
-1.36308 -0.74588 -0.39812
-1.36282 -0.74434 -0.39787
-1.36340 -0.74326 -0.39788
-1.36399 -0.74219 -0.39788
-1.36457 -0.74111 -0.39788
-1.36434 -0.73959 -0.39747
-1.36403 -0.73803 -0.39739
-1.36461 -0.73696 -0.39739
-1.37031 -0.73864 -0.39889
-1.36472 -0.73285 -0.39658
-1.36525 -0.73176 -0.39675
-1.36757 -0.73162 -0.39708
-1.36644 -0.72963 -0.39659
-1.36526 -0.72763 -0.39626
-1.36844 -0.72794 -0.39684
-1.36815 -0.72641 -0.39659
-1.36701 -0.72443 -0.39610
-1.36501 -0.72200 -0.39536
-1.36386 -0.72002 -0.39487
-1.36271 -0.71804 -0.39437
-1.36413 -0.71742 -0.39462
-1.36641 -0.71725 -0.39512
-1.36526 -0.71528 -0.39463
-1.36750 -0.71508 -0.39529
-1.36977 -0.71491 -0.39579
-1.36862 -0.71293 -0.39530
-1.37004 -0.71230 -0.39555
-1.37056 -0.71121 -0.39572
-1.36767 -0.70835 -0.39473
-1.37364 -0.70734 -0.39598
-1.37247 -0.70538 -0.39549
-1.37561 -0.70562 -0.39623
-1.37703 -0.70498 -0.39648
-1.37676 -0.70348 -0.39607
-1.37731 -0.70240 -0.39608
-1.37782 -0.70130 -0.39625
-1.37841 -0.70023 -0.39608
-1.37809 -0.69871 -0.39584
-1.37691 -0.69675 -0.39535
-1.37750 -0.69569 -0.39518
-1.37804 -0.69461 -0.39519
-1.37941 -0.69394 -0.39560
-1.37996 -0.69286 -0.39560
-1.38050 -0.69177 -0.39561
-1.38104 -0.69069 -0.39561
-1.38245 -0.69004 -0.39586
-1.38386 -0.68938 -0.39611
-1.38266 -0.68743 -0.39562
-1.38234 -0.68591 -0.39537
-1.38374 -0.68526 -0.39563
-1.38601 -0.68503 -0.39613
-1.38568 -0.68351 -0.39588
-1.38448 -0.68157 -0.39539
-1.38498 -0.68046 -0.39555
-1.38638 -0.67980 -0.39581
-1.38862 -0.67954 -0.39647
-1.38570 -0.67677 -0.39531
-1.38101 -0.67313 -0.39383
-1.38328 -0.67289 -0.39433
-1.38638 -0.67306 -0.39524
-1.38604 -0.67155 -0.39499
-1.38482 -0.66961 -0.39450
-1.38447 -0.66810 -0.39426
-1.38500 -0.66702 -0.39426
-1.38639 -0.66635 -0.39451
-1.38695 -0.66528 -0.39435
-1.38660 -0.66377 -0.39410
-1.38803 -0.66311 -0.39419
-1.39030 -0.66286 -0.39469
-1.39082 -0.66176 -0.39469
-1.38959 -0.65984 -0.39420
-1.38836 -0.65792 -0.39370
-1.38887 -0.65683 -0.39371
-1.38855 -0.65534 -0.39330
-1.38906 -0.65425 -0.39330
-1.39045 -0.65357 -0.39355
-1.39009 -0.65207 -0.39331
-1.39144 -0.65137 -0.39372
-1.39546 -0.65191 -0.39472
-1.39421 -0.65000 -0.39422
-1.39385 -0.64849 -0.39398
-1.39435 -0.64740 -0.39398
-1.39662 -0.64712 -0.39448
-1.39713 -0.64602 -0.39448
-1.39759 -0.64490 -0.39465
-1.39810 -0.64380 -0.39465
-1.39772 -0.64230 -0.39441
-1.39735 -0.64080 -0.39416
-1.39785 -0.63970 -0.39417
-1.39919 -0.63899 -0.39458
-1.39973 -0.63791 -0.39442
-1.39931 -0.63639 -0.39434
-1.39985 -0.63531 -0.39418
-1.40123 -0.63460 -0.39443
-1.40173 -0.63350 -0.39443
-1.40134 -0.63200 -0.39419
-1.40099 -0.63052 -0.39378
-1.40057 -0.62900 -0.39370
-1.39929 -0.62711 -0.39320
-1.40155 -0.62680 -0.39370
-1.40297 -0.62611 -0.39379
-1.40519 -0.62577 -0.39445
-1.40479 -0.62428 -0.39421
-1.40351 -0.62238 -0.39371
-1.40312 -0.62089 -0.39347
-1.40276 -0.61941 -0.39306
-1.40324 -0.61831 -0.39306
-1.40550 -0.61798 -0.39356
-1.40687 -0.61727 -0.39381
-1.40466 -0.61498 -0.39324
-1.40425 -0.61348 -0.39299
-1.40473 -0.61238 -0.39299
-1.40517 -0.61126 -0.39316
-1.40569 -0.61017 -0.39300
-1.40702 -0.60943 -0.39341
-1.40750 -0.60832 -0.39342
-1.40709 -0.60683 -0.39317
-1.40578 -0.60496 -0.39268
-1.40626 -0.60385 -0.39268
-1.40669 -0.60273 -0.39285
-1.40806 -0.60200 -0.39310
-1.40946 -0.60129 -0.39319
-1.40993 -0.60018 -0.39319
-1.41040 -0.59907 -0.39319
-1.41087 -0.59796 -0.39319
-1.40956 -0.59610 -0.39270
-1.40917 -0.59463 -0.39229
-1.40964 -0.59352 -0.39229
-1.41278 -0.59354 -0.39304
-1.41325 -0.59243 -0.39304
-1.41282 -0.59094 -0.39280
-1.41328 -0.58983 -0.39280
-1.41557 -0.58948 -0.39314
-1.41514 -0.58799 -0.39289
-1.41650 -0.58725 -0.39314
-1.41875 -0.58688 -0.39364
-1.41831 -0.58539 -0.39340
-1.41788 -0.58391 -0.39315
-1.41833 -0.58279 -0.39316
-1.41875 -0.58166 -0.39332
-1.41652 -0.57944 -0.39258
-1.41697 -0.57833 -0.39258
-1.41743 -0.57721 -0.39259
-1.41968 -0.57683 -0.39309
-1.42103 -0.57607 -0.39334
-1.42144 -0.57494 -0.39350
-1.42099 -0.57346 -0.39326
-1.42054 -0.57198 -0.39301
-1.42279 -0.57158 -0.39351
-1.42324 -0.57046 -0.39352
-1.42369 -0.56934 -0.39352
-1.42413 -0.56822 -0.39352
-1.42368 -0.56674 -0.39328
-1.42232 -0.56491 -0.39278
-1.42277 -0.56379 -0.39278
-1.42591 -0.56374 -0.39353
-1.42635 -0.56262 -0.39354
-1.42413 -0.56045 -0.39263
-1.42367 -0.55897 -0.39238
-1.42411 -0.55785 -0.39239
-1.42454 -0.55673 -0.39239
-1.42408 -0.55526 -0.39215
-1.42451 -0.55414 -0.39215
-1.42585 -0.55337 -0.39240
-1.42628 -0.55224 -0.39240
-1.42672 -0.55112 -0.39241
-1.42805 -0.55035 -0.39266
-1.42754 -0.54886 -0.39257
-1.42616 -0.54705 -0.39208
-1.42569 -0.54558 -0.39183
-1.42793 -0.54515 -0.39233
-1.42835 -0.54402 -0.39234
-1.42878 -0.54290 -0.39234
-1.42830 -0.54143 -0.39210
-1.42778 -0.53995 -0.39201
-1.42730 -0.53848 -0.39177
-1.42863 -0.53770 -0.39202
-1.42905 -0.53658 -0.39202
-1.43128 -0.53613 -0.39252
-1.43261 -0.53535 -0.39277
-1.43394 -0.53456 -0.39303
-1.43436 -0.53343 -0.39303
-1.43387 -0.53196 -0.39278
-1.43338 -0.53050 -0.39254
-1.43380 -0.52936 -0.39254
-1.43516 -0.52858 -0.39263
-1.43740 -0.52812 -0.39313
-1.43694 -0.52666 -0.39272
-1.43735 -0.52553 -0.39272
-1.43686 -0.52406 -0.39248
-1.43814 -0.52325 -0.39289
-1.43768 -0.52180 -0.39248
-1.43718 -0.52033 -0.39224
-1.43759 -0.51920 -0.39224
-1.43891 -0.51839 -0.39249
-1.44023 -0.51758 -0.39274
-1.44064 -0.51645 -0.39274
-1.44104 -0.51531 -0.39275
-1.44419 -0.51515 -0.39350
-1.44277 -0.51336 -0.39300
-1.44134 -0.51157 -0.39251
-1.44175 -0.51043 -0.39251
-1.44211 -0.50928 -0.39268
-1.44160 -0.50782 -0.39243
-1.44382 -0.50733 -0.39293
-1.44422 -0.50619 -0.39293
-1.44458 -0.50503 -0.39310
-1.44498 -0.50389 -0.39310
-1.44533 -0.50274 -0.39327
-1.44577 -0.50161 -0.39311
-1.44616 -0.50047 -0.39311
-1.44751 -0.49966 -0.39320
-1.44970 -0.49913 -0.39387
-1.44917 -0.49768 -0.39362
-1.44869 -0.49623 -0.39321
-1.44908 -0.49509 -0.39321
-1.44947 -0.49395 -0.39321
-1.44894 -0.49249 -0.39297
-1.44933 -0.49135 -0.39297
-1.47724 -0.49951 -0.40044
-1.73349 -0.53480 -0.46597
-1.73303 -0.53316 -0.46553
-1.73992 -0.50984 -0.46597
-1.75086 -0.46687 -0.46599
-1.74941 -0.46500 -0.46530
-1.74977 -0.46362 -0.46530
-1.75014 -0.46224 -0.46530
-1.75050 -0.46086 -0.46531
-1.75087 -0.45948 -0.46531
-1.75216 -0.45834 -0.46555
-1.75346 -0.45720 -0.46581
-1.75195 -0.45533 -0.46531
-1.75142 -0.45372 -0.46487
-1.75365 -0.45282 -0.46536
-1.75494 -0.45168 -0.46561
-1.75342 -0.44982 -0.46512
-1.75378 -0.44843 -0.46512
-1.39022 -1.16155 -0.46367
-1.40264 -1.13867 -0.46288
-1.40579 -1.13939 -0.46363
-1.42467 -1.12352 -0.46493
-1.42631 -1.12300 -0.46518
-1.42715 -1.12185 -0.46538
-1.42879 -1.12132 -0.46563
-1.42967 -1.12020 -0.46563
-1.42899 -1.11785 -0.46533
-1.42757 -1.11494 -0.46459
-1.42768 -1.11322 -0.46435
-1.43165 -1.11451 -0.46515
-1.43402 -1.11455 -0.46584
-1.43340 -1.11226 -0.46515
-1.43351 -1.11054 -0.46491
-1.43744 -1.11179 -0.46591
-1.43371 -1.10710 -0.46442
-1.47027 -1.05975 -0.46462
-1.47268 -1.05972 -0.46512
-1.47347 -1.05853 -0.46532
-1.48185 -1.03993 -0.46457
-1.48188 -1.03821 -0.46432
-1.48432 -1.03817 -0.46463
-1.48828 -1.03919 -0.46582
-1.57302 -0.91143 -0.46694
-1.57705 -0.91210 -0.46813
-1.58410 -0.88805 -0.46650
-1.51469 -0.84757 -0.44567
-1.35757 -0.75544 -0.39892
-1.35732 -0.75389 -0.39868
-1.35876 -0.75329 -0.39893
-1.36189 -0.75363 -0.39968
-1.36249 -0.75255 -0.39968
-1.36223 -0.75101 -0.39943
-1.36109 -0.74898 -0.39911
-1.36171 -0.74793 -0.39894
-1.36311 -0.74730 -0.39936
-1.36367 -0.74620 -0.39953
-1.36259 -0.74422 -0.39887
-1.36318 -0.74314 -0.39887
-1.36372 -0.74204 -0.39904
-1.36431 -0.74097 -0.39904
-1.36408 -0.73945 -0.39863
-1.36377 -0.73789 -0.39855
-1.36606 -0.73774 -0.39905
-1.38113 -0.74447 -0.40329
-1.36636 -0.73512 -0.39881
-1.36267 -0.73176 -0.39757
-1.36325 -0.73069 -0.39757
-1.36358 -0.72811 -0.39716
-1.36158 -0.72567 -0.39642
-1.36215 -0.72460 -0.39642
-1.36358 -0.72398 -0.39667
-1.36582 -0.72380 -0.39734
-1.36471 -0.72184 -0.39668
-1.36185 -0.71896 -0.39569
-1.36156 -0.71743 -0.39544
-1.36555 -0.71817 -0.39644
-1.36868 -0.71844 -0.39719
-1.36753 -0.71647 -0.39670
-1.36548 -0.71403 -0.39612
-1.36604 -0.71296 -0.39612
-1.36918 -0.71322 -0.39687
-1.37145 -0.71304 -0.39737
-1.36947 -0.71065 -0.39646
-1.36999 -0.70955 -0.39663
-1.37368 -0.70873 -0.39738
-1.37162 -0.70630 -0.39680
-1.37303 -0.70566 -0.39705
-1.37617 -0.70591 -0.39781
-1.37586 -0.70439 -0.39756
-1.37728 -0.70375 -0.39781
-1.37783 -0.70266 -0.39781
-1.37842 -0.70160 -0.39765
-1.37720 -0.69962 -0.39732
-1.37689 -0.69810 -0.39708
-1.37740 -0.69700 -0.39724
-1.37802 -0.69596 -0.39692
-1.37857 -0.69487 -0.39692
-1.37911 -0.69379 -0.39692
-1.38139 -0.69358 -0.39742
-1.38193 -0.69249 -0.39743
-1.38074 -0.69054 -0.39693
-1.38305 -0.69034 -0.39727
-1.38446 -0.68968 -0.39752
-1.38327 -0.68773 -0.39702
-1.38211 -0.68580 -0.39636
-1.38261 -0.68470 -0.39653
-1.38492 -0.68449 -0.39687
-1.38542 -0.68338 -0.39704
-1.38421 -0.68144 -0.39654
-1.38388 -0.67992 -0.39630
-1.38528 -0.67926 -0.39655
-1.38929 -0.67987 -0.39755
-1.38631 -0.67706 -0.39672
-1.38162 -0.67343 -0.39523
-1.38650 -0.67446 -0.39648
-1.38616 -0.67295 -0.39623
-1.38403 -0.67057 -0.39565
-1.38281 -0.66864 -0.39515
-1.38421 -0.66798 -0.39541
-1.38386 -0.66647 -0.39516
-1.38438 -0.66538 -0.39516
-1.38669 -0.66515 -0.39550
-1.38896 -0.66490 -0.39600
-1.38948 -0.66380 -0.39600
-1.38825 -0.66188 -0.39551
-1.38789 -0.66037 -0.39526
-1.38841 -0.65928 -0.39526
-1.38980 -0.65860 -0.39552
-1.38857 -0.65668 -0.39502
-1.38908 -0.65559 -0.39503
-1.38872 -0.65409 -0.39478
-1.38660 -0.65176 -0.39403
-1.38711 -0.65067 -0.39404
-1.39727 -0.65410 -0.39678
-1.39515 -0.65177 -0.39604
-1.39215 -0.64904 -0.39504
-1.39266 -0.64794 -0.39504
-1.39580 -0.64807 -0.39580
-1.39719 -0.64738 -0.39605
-1.39590 -0.64545 -0.39572
-1.39641 -0.64436 -0.39572
-1.39691 -0.64326 -0.39572
-1.39654 -0.64176 -0.39548
-1.39616 -0.64026 -0.39523
-1.39754 -0.63956 -0.39548
-1.39892 -0.63887 -0.39573
-1.39943 -0.63777 -0.39574
-1.39904 -0.63626 -0.39549
-1.39950 -0.63515 -0.39566
-1.40092 -0.63446 -0.39575
-1.40054 -0.63296 -0.39550
-1.40015 -0.63147 -0.39525
-1.40153 -0.63076 -0.39551
-1.40291 -0.63006 -0.39576
-1.40340 -0.62895 -0.39576
-1.40390 -0.62785 -0.39576
-1.40439 -0.62674 -0.39577
-1.40488 -0.62564 -0.39577
-1.40364 -0.62376 -0.39511
-1.40324 -0.62227 -0.39486
-1.40373 -0.62116 -0.39487
-1.40599 -0.62084 -0.39537
-1.40297 -0.61819 -0.39421
-1.40608 -0.61824 -0.39512
-1.40660 -0.61715 -0.39496
-1.40354 -0.61449 -0.39397
-1.40221 -0.61259 -0.39364
-1.40539 -0.61267 -0.39422
-1.40587 -0.61156 -0.39423
-1.40453 -0.60967 -0.39390
-1.40416 -0.60819 -0.39349
-1.40549 -0.60745 -0.39390
-1.40597 -0.60635 -0.39391
-1.40555 -0.60486 -0.39366
-1.40599 -0.60374 -0.39382
-1.40646 -0.60263 -0.39383
-1.40694 -0.60152 -0.39383
-1.40648 -0.60002 -0.39375
-1.40780 -0.59928 -0.39416
-1.40916 -0.59855 -0.39442
-1.41056 -0.59783 -0.39450
-1.40750 -0.59523 -0.39335
-1.40886 -0.59450 -0.39360
-1.41468 -0.59565 -0.39510
-1.41426 -0.59416 -0.39485
-1.41294 -0.59230 -0.39436
-1.41340 -0.59118 -0.39436
-1.41480 -0.59046 -0.39445
-1.41526 -0.58935 -0.39445
-1.41569 -0.58822 -0.39462
-1.41615 -0.58710 -0.39462
-1.41571 -0.58562 -0.39437
-1.41621 -0.58452 -0.39421
-1.41757 -0.58378 -0.39447
-1.41802 -0.58266 -0.39447
-1.41848 -0.58155 -0.39447
-1.41800 -0.58005 -0.39439
-1.41666 -0.57820 -0.39389
-1.41712 -0.57708 -0.39390
-1.41757 -0.57597 -0.39390
-1.42071 -0.57595 -0.39465
-1.42113 -0.57481 -0.39482
-1.42072 -0.57335 -0.39441
-1.41937 -0.57151 -0.39391
-1.41978 -0.57037 -0.39408
-1.42023 -0.56926 -0.39408
-1.42247 -0.56886 -0.39458
-1.42382 -0.56810 -0.39483
-1.42426 -0.56698 -0.39484
-1.42381 -0.56550 -0.39459
-1.42421 -0.56436 -0.39476
-1.42650 -0.56397 -0.39509
-1.42420 -0.56177 -0.39451
-1.42288 -0.55995 -0.39385
-1.42512 -0.55954 -0.39436
-1.42465 -0.55807 -0.39411
-1.42333 -0.55626 -0.39345
-1.42196 -0.55443 -0.39295
-1.42239 -0.55331 -0.39296
-1.42463 -0.55290 -0.39346
-1.42687 -0.55247 -0.39396
-1.42731 -0.55135 -0.39396
-1.42774 -0.55023 -0.39397
-1.42731 -0.54877 -0.39356
-1.42683 -0.54730 -0.39331
-1.42817 -0.54653 -0.39356
-1.42856 -0.54539 -0.39373
-1.42717 -0.54357 -0.39323
-1.42673 -0.54212 -0.39282
-1.42716 -0.54100 -0.39283
-1.42754 -0.53986 -0.39299
-1.42797 -0.53874 -0.39299
-1.42839 -0.53761 -0.39300
-1.43153 -0.53751 -0.39375
-1.43554 -0.53773 -0.39491
-1.43324 -0.53558 -0.39417
-1.43366 -0.53446 -0.39417
-1.43590 -0.53400 -0.39467
-1.43450 -0.53220 -0.39418
-1.43492 -0.53107 -0.39418
-1.43530 -0.52992 -0.39435
-1.43666 -0.52913 -0.39443
-1.43617 -0.52767 -0.39419
-1.43658 -0.52653 -0.39419
-1.43609 -0.52507 -0.39394
-1.43650 -0.52393 -0.39395
-1.43695 -0.52281 -0.39379
-1.43733 -0.52167 -0.39395
-1.43869 -0.52087 -0.39404
-1.43910 -0.51974 -0.39404
-1.43951 -0.51860 -0.39405
-1.43991 -0.51747 -0.39405
-1.44032 -0.51633 -0.39405
-1.44073 -0.51519 -0.39406
-1.44113 -0.51406 -0.39406
-1.44154 -0.51292 -0.39406
-1.44190 -0.51177 -0.39423
-1.44230 -0.51063 -0.39423
-1.44183 -0.50918 -0.39382
-1.44314 -0.50837 -0.39407
-1.44351 -0.50721 -0.39424
-1.44390 -0.50608 -0.39424
-1.44426 -0.50492 -0.39441
-1.44466 -0.50378 -0.39441
-1.44689 -0.50328 -0.39492
-1.44545 -0.50150 -0.39442
-1.44585 -0.50036 -0.39442
-1.44624 -0.49922 -0.39443
-1.44663 -0.49808 -0.39443
-1.44698 -0.49692 -0.39459
-1.44737 -0.49578 -0.39460
-1.44780 -0.49465 -0.39444
-1.44819 -0.49351 -0.39444
-1.44858 -0.49237 -0.39444
-1.45451 -0.49310 -0.39578
-1.50073 -0.50745 -0.40843
-1.71658 -0.55490 -0.46497
-1.72890 -0.53189 -0.46627
-1.74486 -0.46527 -0.46605
-1.74336 -0.46340 -0.46555
-1.74372 -0.46202 -0.46555
-1.74507 -0.46090 -0.46560
-1.74731 -0.46002 -0.46610
-1.74673 -0.45839 -0.46586
-1.74522 -0.45653 -0.46536
-1.74652 -0.45539 -0.46561
-1.74781 -0.45426 -0.46586
-1.74536 -0.45215 -0.46511
-1.74571 -0.45077 -0.46511
-1.74888 -0.45012 -0.46586
-1.74830 -0.44850 -0.46561
-1.74682 -0.44666 -0.46492
-1.74994 -0.42984 -0.46506
-1.75310 -0.42915 -0.46581
-1.40083 -1.13720 -0.46392
-1.40398 -1.13792 -0.46468
-1.41671 -1.11905 -0.46385
-1.41759 -1.11794 -0.46385
-1.41999 -1.11802 -0.46435
-1.42235 -1.11807 -0.46505
-1.42170 -1.11576 -0.46455
-1.42334 -1.11524 -0.46480
-1.42723 -1.11647 -0.46600
-1.42657 -1.11416 -0.46550
-1.42439 -1.11066 -0.46451
-1.42526 -1.10954 -0.46451
-1.42835 -1.11014 -0.46565
-1.42777 -1.10789 -0.46477
-1.42481 -1.10380 -0.46353
-1.43023 -1.10621 -0.46522
-1.43033 -1.10449 -0.46497
-1.42817 -1.10103 -0.46379
-1.46920 -1.05898 -0.46573
-1.46925 -1.05726 -0.46548
-1.47522 -1.03528 -0.46393
-1.47842 -1.03578 -0.46468
-1.47924 -1.03462 -0.46468
-1.47926 -1.03289 -0.46444
-1.49140 -1.01362 -0.46405
-1.49300 -1.01298 -0.46430
-1.50480 -0.99008 -0.46362
-1.50719 -0.98995 -0.46412
-1.52277 -0.97120 -0.46492
-1.55596 -0.90155 -0.46331
-1.55918 -0.90177 -0.46406
-1.51942 -0.85022 -0.44865
-1.36489 -0.75951 -0.40250
-1.35702 -0.75373 -0.40000
-1.35761 -0.75266 -0.40001
-1.35986 -0.75250 -0.40068
-1.36134 -0.75192 -0.40076
-1.36023 -0.74991 -0.40027
-1.35998 -0.74837 -0.40002
-1.36226 -0.74823 -0.40052
-1.36281 -0.74713 -0.40069
-1.36174 -0.74515 -0.40003
-1.36059 -0.74312 -0.39970
-1.36203 -0.74251 -0.39995
-1.36346 -0.74190 -0.40020
-1.36486 -0.74127 -0.40062
-1.36374 -0.73927 -0.40013
-1.36262 -0.73727 -0.39963
-1.36320 -0.73619 -0.39963
-1.37230 -0.73971 -0.40213
-1.36152 -0.73114 -0.39864
-1.36295 -0.73052 -0.39889
-1.36324 -0.72793 -0.39865
-1.36210 -0.72594 -0.39815
-1.36267 -0.72487 -0.39816
-1.36584 -0.72518 -0.39875
-1.36641 -0.72411 -0.39875
-1.36612 -0.72258 -0.39850
-1.36754 -0.72196 -0.39875
-1.36811 -0.72089 -0.39876
-1.36528 -0.71803 -0.39760
-1.36581 -0.71694 -0.39776
-1.36812 -0.71678 -0.39810
-1.36869 -0.71571 -0.39810
-1.36839 -0.71418 -0.39786
-1.37067 -0.71400 -0.39836
-1.37209 -0.71337 -0.39861
-1.36921 -0.71051 -0.39762
-1.36808 -0.70856 -0.39696
-1.37204 -0.70925 -0.39812
-1.37088 -0.70728 -0.39763
-1.37143 -0.70620 -0.39763
-1.37281 -0.70555 -0.39805
-1.37505 -0.70533 -0.39871
-1.37560 -0.70425 -0.39872
-1.37615 -0.70317 -0.39872
-1.37670 -0.70209 -0.39872
-1.37811 -0.70145 -0.39898
-1.37866 -0.70036 -0.39898
-1.37662 -0.69797 -0.39823
-1.37631 -0.69645 -0.39798
-1.37775 -0.69582 -0.39807
-1.38003 -0.69561 -0.39858
-1.38057 -0.69453 -0.39858
-1.38022 -0.69299 -0.39850
-1.38166 -0.69236 -0.39858
-1.38221 -0.69127 -0.39859
-1.38101 -0.68932 -0.39809
-1.38242 -0.68866 -0.39834
-1.38296 -0.68758 -0.39835
-1.38350 -0.68649 -0.39835
-1.38317 -0.68498 -0.39810
-1.38371 -0.68389 -0.39810
-1.38341 -0.68239 -0.39769
-1.38395 -0.68130 -0.39770
-1.38444 -0.68020 -0.39786
-1.39019 -0.68167 -0.39937
-1.38165 -0.67479 -0.39679
-1.38131 -0.67328 -0.39654
-1.38184 -0.67219 -0.39654
-1.38324 -0.67153 -0.39680
-1.38376 -0.67044 -0.39680
-1.38425 -0.66934 -0.39697
-1.38390 -0.66783 -0.39672
-1.38446 -0.66676 -0.39656
-1.38411 -0.66525 -0.39631
-1.38460 -0.66415 -0.39648
-1.38424 -0.66264 -0.39623
-1.38564 -0.66197 -0.39648
-1.38703 -0.66130 -0.39674
-1.38755 -0.66021 -0.39674
-1.38719 -0.65870 -0.39649
-1.38687 -0.65721 -0.39608
-1.38822 -0.65652 -0.39650
-1.38794 -0.65505 -0.39593
-1.38579 -0.65271 -0.39534
-1.38542 -0.65121 -0.39509
-1.38769 -0.65094 -0.39560
-1.39433 -0.65272 -0.39735
-1.39752 -0.65287 -0.39794
-1.39276 -0.64932 -0.39644
-1.39415 -0.64863 -0.39670
-1.39554 -0.64795 -0.39695
-1.39604 -0.64685 -0.39695
-1.39567 -0.64535 -0.39670
-1.39534 -0.64386 -0.39629
-1.39492 -0.64234 -0.39621
-1.39631 -0.64165 -0.39646
-1.39857 -0.64136 -0.39697
-1.39819 -0.63986 -0.39672
-1.39781 -0.63836 -0.39647
-1.39916 -0.63764 -0.39689
-1.40054 -0.63694 -0.39714
-1.40104 -0.63584 -0.39714
-1.39973 -0.63393 -0.39681
-1.39935 -0.63243 -0.39657
-1.40076 -0.63174 -0.39665
-1.40210 -0.63102 -0.39707
-1.40264 -0.62993 -0.39691
-1.40313 -0.62883 -0.39691
-1.40362 -0.62773 -0.39692
-1.40323 -0.62623 -0.39667
-1.40284 -0.62473 -0.39642
-1.40333 -0.62362 -0.39642
-1.40467 -0.62290 -0.39684
-1.40608 -0.62220 -0.39693
-1.40214 -0.61914 -0.39568
-1.40174 -0.61764 -0.39544
-1.40311 -0.61693 -0.39569
-1.40359 -0.61583 -0.39569
-1.40496 -0.61511 -0.39594
-1.40456 -0.61362 -0.39570
-1.40419 -0.61214 -0.39529
-1.40290 -0.61026 -0.39479
-1.40245 -0.60876 -0.39471
-1.40026 -0.60650 -0.39396
-1.40429 -0.60694 -0.39496
-1.40743 -0.60698 -0.39571
-1.40524 -0.60473 -0.39497
-1.40301 -0.60246 -0.39438
-1.40619 -0.60251 -0.39497
-1.40662 -0.60139 -0.39514
-1.40442 -0.59914 -0.39439
-1.40400 -0.59766 -0.39415
-1.40982 -0.59883 -0.39565
-1.41207 -0.59847 -0.39615
-1.40715 -0.59508 -0.39482
-1.40405 -0.59247 -0.39382
-1.40991 -0.59364 -0.39516
-1.41573 -0.59478 -0.39666
-1.41263 -0.59217 -0.39567
-1.41398 -0.59143 -0.39592
-1.41445 -0.59032 -0.39592
-1.41491 -0.58920 -0.39593
-1.41537 -0.58809 -0.39593
-1.41583 -0.58698 -0.39593
-1.41630 -0.58586 -0.39593
-1.41679 -0.58476 -0.39577
-1.41725 -0.58365 -0.39578
-1.41771 -0.58253 -0.39578
-1.41817 -0.58142 -0.39578
-1.41866 -0.58032 -0.39562
-1.41912 -0.57920 -0.39562
-1.41953 -0.57807 -0.39579
-1.41999 -0.57695 -0.39579
-1.42048 -0.57585 -0.39563
-1.42093 -0.57473 -0.39564
-1.42138 -0.57361 -0.39564
-1.42183 -0.57250 -0.39564
-1.42224 -0.57136 -0.39581
-1.42089 -0.56952 -0.39531
-1.42040 -0.56803 -0.39523
-1.42354 -0.56799 -0.39598
-1.42399 -0.56687 -0.39598
-1.42173 -0.56468 -0.39524
-1.42218 -0.56356 -0.39524
-1.42892 -0.56493 -0.39699
-1.42212 -0.56095 -0.39516
-1.41806 -0.55806 -0.39391
-1.42210 -0.55836 -0.39492
-1.42524 -0.55830 -0.39567
-1.42388 -0.55647 -0.39517
-1.42168 -0.55432 -0.39410
-1.42208 -0.55319 -0.39426
-1.42251 -0.55207 -0.39427
-1.42295 -0.55095 -0.39427
-1.42248 -0.54949 -0.39402
-1.42291 -0.54836 -0.39402
-1.42243 -0.54690 -0.39378
-1.42200 -0.54545 -0.39337
-1.42243 -0.54433 -0.39337
-1.42462 -0.54388 -0.39404
-1.42595 -0.54311 -0.39429
-1.42638 -0.54199 -0.39429
-1.42684 -0.54088 -0.39413
-1.42723 -0.53974 -0.39430
-1.42675 -0.53828 -0.39405
-1.42808 -0.53750 -0.39430
-1.42940 -0.53671 -0.39456
-1.43436 -0.53729 -0.39581
-1.43293 -0.53546 -0.39548
-1.43335 -0.53434 -0.39548
-1.43380 -0.53322 -0.39532
-1.43418 -0.53208 -0.39549
-1.43369 -0.53061 -0.39524
-1.43411 -0.52948 -0.39524
-1.43544 -0.52868 -0.39549
-1.43585 -0.52755 -0.39550
-1.43627 -0.52642 -0.39550
-1.43577 -0.52495 -0.39525
-1.43528 -0.52349 -0.39500
-1.43569 -0.52235 -0.39501
-1.43701 -0.52155 -0.39526
-1.43742 -0.52042 -0.39526
-1.43696 -0.51897 -0.39485
-1.43646 -0.51750 -0.39461
-1.43864 -0.51701 -0.39527
-1.43996 -0.51620 -0.39553
-1.44041 -0.51508 -0.39537
-1.44081 -0.51394 -0.39537
-1.44122 -0.51281 -0.39537
-1.44162 -0.51167 -0.39537
-1.44115 -0.51022 -0.39496
-1.44247 -0.50941 -0.39522
-1.44287 -0.50827 -0.39522
-1.44231 -0.50680 -0.39514
-1.44271 -0.50566 -0.39514
-1.44402 -0.50484 -0.39539
-1.44442 -0.50370 -0.39539
-1.44482 -0.50256 -0.39540
-1.44521 -0.50142 -0.39540
-1.44648 -0.50058 -0.39582
-1.44783 -0.49977 -0.39591
-1.44727 -0.49830 -0.39582
-1.44674 -0.49684 -0.39558
-1.44805 -0.49601 -0.39583
-1.44932 -0.49517 -0.39625
-1.44971 -0.49403 -0.39625
-1.44830 -0.49227 -0.39559
-1.44686 -0.49051 -0.39509
-1.47200 -0.49774 -0.40185
-1.72867 -0.47559 -0.46413
-1.73549 -0.46130 -0.46508
-1.73772 -0.46043 -0.46559
-1.73996 -0.45955 -0.46609
-1.74126 -0.45843 -0.46634
-1.74162 -0.45705 -0.46634
-1.73917 -0.45494 -0.46559
-1.73859 -0.45333 -0.46534
-1.74269 -0.45293 -0.46634
-1.74680 -0.45253 -0.46735
-1.74345 -0.45019 -0.46615
-1.73912 -0.44761 -0.46490
-1.74229 -0.44696 -0.46565
-1.74362 -0.44584 -0.46571
-1.41100 -1.11454 -0.46403
-1.41678 -1.11189 -0.46479
-1.41841 -1.11138 -0.46504
-1.42077 -1.11143 -0.46574
-1.42164 -1.11031 -0.46574
-1.42099 -1.10800 -0.46525
-1.41880 -1.10451 -0.46425
-1.41886 -1.10277 -0.46420
-1.42206 -1.10346 -0.46476
-1.42369 -1.10294 -0.46501
-1.42455 -1.10182 -0.46502
-1.42542 -1.10070 -0.46502
-1.42398 -1.09781 -0.46427
-1.42484 -1.09669 -0.46427
-1.42493 -1.09498 -0.46403
-1.42349 -1.09209 -0.46328
-1.42592 -1.09218 -0.46359
-1.44191 -1.07420 -0.46415
-1.44194 -1.07246 -0.46410
-1.47010 -1.03169 -0.46416
-1.47250 -1.03164 -0.46466
-1.47569 -1.03214 -0.46542
-1.49111 -1.01170 -0.46515
-1.51506 -0.96797 -0.46485
-1.51582 -0.96677 -0.46485
-1.52786 -0.94586 -0.46447
-1.53194 -0.94672 -0.46528
-1.54346 -0.92382 -0.46523
-1.54502 -0.92310 -0.46548
-1.55407 -0.90209 -0.46459
-1.55306 -0.89987 -0.46429
-1.55971 -0.87438 -0.46279
-1.48779 -0.83252 -0.44106
-1.35862 -0.75602 -0.40225
-1.35672 -0.75356 -0.40133
-1.35816 -0.75296 -0.40159
-1.36045 -0.75283 -0.40209
-1.35934 -0.75082 -0.40159
-1.35824 -0.74881 -0.40109
-1.35968 -0.74820 -0.40135
-1.36281 -0.74853 -0.40210
-1.36255 -0.74699 -0.40186
-1.36140 -0.74496 -0.40152
-1.36199 -0.74389 -0.40153
-1.36258 -0.74281 -0.40153
-1.36316 -0.74174 -0.40153
-1.36371 -0.74064 -0.40170
-1.36429 -0.73957 -0.40170
-1.36317 -0.73757 -0.40121
-1.36460 -0.73695 -0.40146
-1.36661 -0.73525 -0.40172
-1.36122 -0.73098 -0.39997
-1.35923 -0.72853 -0.39922
-1.36464 -0.72868 -0.40048
-1.36440 -0.72717 -0.40006
-1.36155 -0.72428 -0.39906
-1.36208 -0.72319 -0.39923
-1.36611 -0.72395 -0.40007
-1.36667 -0.72288 -0.40007
-1.36553 -0.72090 -0.39958
-1.36609 -0.71983 -0.39958
-1.36837 -0.71965 -0.40008
-1.36890 -0.71856 -0.40025
-1.36607 -0.71570 -0.39909
-1.36491 -0.71373 -0.39859
-1.36547 -0.71266 -0.39859
-1.36603 -0.71159 -0.39859
-1.36453 -0.70808 -0.39801
-1.36509 -0.70701 -0.39802
-1.37394 -0.70886 -0.40028
-1.37105 -0.70601 -0.39928
-1.37329 -0.70579 -0.39995
-1.37470 -0.70516 -0.40020
-1.37439 -0.70364 -0.39995
-1.37408 -0.70212 -0.39970
-1.37722 -0.70235 -0.40046
-1.37777 -0.70127 -0.40046
-1.37832 -0.70019 -0.40047
-1.37628 -0.69779 -0.39972
-1.37596 -0.69627 -0.39947
-1.37910 -0.69650 -0.40022
-1.38051 -0.69585 -0.40048
-1.38019 -0.69433 -0.40023
-1.38074 -0.69325 -0.40023
-1.38041 -0.69173 -0.39998
-1.37926 -0.68980 -0.39932
-1.37980 -0.68871 -0.39932
-1.38034 -0.68763 -0.39933
-1.38088 -0.68655 -0.39933
-1.38142 -0.68546 -0.39933
-1.38200 -0.68439 -0.39917
-1.38250 -0.68329 -0.39934
-1.38307 -0.68222 -0.39918
-1.38360 -0.68113 -0.39918
-1.38414 -0.68005 -0.39918
-1.38554 -0.67939 -0.39944
-1.37999 -0.67532 -0.39769
-1.38052 -0.67423 -0.39769
-1.38539 -0.67527 -0.39894
-1.38502 -0.67374 -0.39886
-1.38293 -0.67138 -0.39811
-1.38259 -0.66987 -0.39787
-1.38137 -0.66794 -0.39737
-1.38185 -0.66684 -0.39753
-1.38325 -0.66617 -0.39779
-1.38377 -0.66509 -0.39779
-1.38167 -0.66274 -0.39704
-1.38227 -0.66169 -0.39672
-1.38446 -0.66141 -0.39755
-1.38410 -0.65990 -0.39730
-1.38287 -0.65798 -0.39680
-1.38605 -0.65816 -0.39739
-1.38744 -0.65748 -0.39765
-1.38617 -0.65555 -0.39731
-1.38668 -0.65446 -0.39731
-1.38898 -0.65421 -0.39765
-1.38687 -0.65188 -0.39691
-1.38734 -0.65078 -0.39707
-1.40012 -0.65543 -0.40059
-1.39278 -0.65066 -0.39817
-1.39154 -0.64875 -0.39767
-1.39205 -0.64766 -0.39767
-1.39519 -0.64779 -0.39843
-1.39482 -0.64628 -0.39818
-1.39445 -0.64478 -0.39793
-1.39579 -0.64407 -0.39835
-1.39630 -0.64297 -0.39835
-1.39592 -0.64147 -0.39811
-1.39642 -0.64038 -0.39811
-1.39692 -0.63928 -0.39811
-1.39743 -0.63818 -0.39811
-1.39881 -0.63748 -0.39837
-1.39927 -0.63637 -0.39854
-1.39889 -0.63487 -0.39829
-1.39850 -0.63337 -0.39804
-1.39988 -0.63267 -0.39829
-1.40126 -0.63196 -0.39855
-1.40175 -0.63086 -0.39855
-1.40133 -0.62935 -0.39847
-1.40098 -0.62787 -0.39805
-1.40147 -0.62676 -0.39806
-1.40284 -0.62605 -0.39831
-1.40422 -0.62534 -0.39857
-1.40387 -0.62386 -0.39815
-1.40259 -0.62197 -0.39765
-1.40396 -0.62126 -0.39791
-1.40799 -0.62172 -0.39891
-1.39962 -0.61671 -0.39641
-1.40010 -0.61561 -0.39641
-1.40324 -0.61567 -0.39717
-1.40373 -0.61457 -0.39717
-1.40421 -0.61347 -0.39717
-1.40739 -0.61354 -0.39776
-1.40521 -0.61127 -0.39702
-1.40303 -0.60901 -0.39626
-1.40350 -0.60791 -0.39627
-1.40309 -0.60642 -0.39602
-1.40353 -0.60530 -0.39619
-1.40404 -0.60421 -0.39603
-1.40185 -0.60196 -0.39528
-1.40228 -0.60084 -0.39544
-1.40271 -0.59972 -0.39561
-1.40586 -0.59976 -0.39637
-1.40726 -0.59904 -0.39646
-1.40769 -0.59792 -0.39662
-1.40816 -0.59681 -0.39663
-1.40680 -0.59493 -0.39629
-1.40552 -0.59309 -0.39563
-1.41223 -0.59462 -0.39739
-1.41270 -0.59350 -0.39739
-1.41227 -0.59202 -0.39714
-1.41363 -0.59128 -0.39739
-1.41588 -0.59091 -0.39790
-1.41456 -0.58905 -0.39740
-1.41502 -0.58794 -0.39740
-1.41548 -0.58683 -0.39741
-1.41688 -0.58610 -0.39750
-1.41644 -0.58462 -0.39725
-1.41690 -0.58350 -0.39725
-1.41646 -0.58202 -0.39700
-1.41688 -0.58089 -0.39717
-1.41734 -0.57977 -0.39717
-1.41783 -0.57868 -0.39701
-1.41918 -0.57793 -0.39727
-1.41963 -0.57681 -0.39727
-1.42005 -0.57568 -0.39744
-1.41960 -0.57420 -0.39719
-1.42005 -0.57308 -0.39719
-1.42050 -0.57196 -0.39719
-1.42095 -0.57084 -0.39720
-1.42140 -0.56973 -0.39720
-1.42180 -0.56859 -0.39737
-1.42225 -0.56747 -0.39737
-1.42090 -0.56564 -0.39687
-1.42134 -0.56452 -0.39687
-1.42178 -0.56340 -0.39688
-1.42223 -0.56228 -0.39688
-1.41816 -0.55939 -0.39563
-1.41856 -0.55826 -0.39579
-1.41994 -0.55751 -0.39588
-1.42038 -0.55639 -0.39589
-1.42082 -0.55527 -0.39589
-1.42125 -0.55416 -0.39589
-1.42165 -0.55302 -0.39606
-1.42212 -0.55192 -0.39590
-1.42346 -0.55115 -0.39615
-1.42302 -0.54970 -0.39574
-1.42165 -0.54788 -0.39524
-1.42118 -0.54641 -0.39499
-1.42432 -0.54634 -0.39575
-1.42746 -0.54625 -0.39650
-1.42883 -0.54549 -0.39660
-1.42835 -0.54402 -0.39635
-1.42606 -0.54187 -0.39560
-1.42649 -0.54075 -0.39560
-1.42691 -0.53962 -0.39560
-1.42462 -0.53748 -0.39485
-1.42504 -0.53635 -0.39486
-1.42814 -0.53624 -0.39577
-1.43219 -0.53647 -0.39678
-1.43079 -0.53467 -0.39628
-1.43031 -0.53321 -0.39604
-1.43341 -0.53308 -0.39696
-1.43383 -0.53195 -0.39696
-1.43334 -0.53048 -0.39671
-1.43466 -0.52968 -0.39696
-1.43504 -0.52854 -0.39713
-1.43549 -0.52742 -0.39697
-1.43587 -0.52627 -0.39714
-1.43537 -0.52480 -0.39689
-1.43583 -0.52369 -0.39673
-1.43624 -0.52255 -0.39673
-1.43665 -0.52142 -0.39673
-1.43706 -0.52029 -0.39674
-1.43656 -0.51882 -0.39649
-1.43697 -0.51769 -0.39649
-1.43833 -0.51690 -0.39658
-1.43873 -0.51576 -0.39658
-1.43910 -0.51461 -0.39675
-1.44041 -0.51380 -0.39700
-1.44086 -0.51268 -0.39684
-1.44126 -0.51154 -0.39685
-1.44162 -0.51039 -0.39701
-1.44203 -0.50925 -0.39702
-1.44247 -0.50813 -0.39686
-1.44287 -0.50699 -0.39686
-1.44323 -0.50584 -0.39703
-1.44271 -0.50438 -0.39678
-1.44402 -0.50356 -0.39703
-1.44442 -0.50242 -0.39703
-1.44481 -0.50128 -0.39704
-1.44521 -0.50014 -0.39704
-1.44560 -0.49900 -0.39704
-1.44595 -0.49784 -0.39721
-1.44817 -0.49733 -0.39771
-1.44948 -0.49650 -0.39797
-1.44891 -0.49503 -0.39788
-1.44747 -0.49327 -0.39738
-1.44698 -0.49182 -0.39697
-1.45379 -0.49286 -0.39874
-1.71702 -0.49725 -0.46474
-1.73033 -0.45993 -0.46575
-1.72789 -0.45782 -0.46499
-1.72825 -0.45646 -0.46499
-1.73048 -0.45559 -0.46550
-1.73177 -0.45447 -0.46575
-1.73218 -0.45311 -0.46556
-1.73441 -0.45224 -0.46606
-1.73570 -0.45111 -0.46631
-1.73699 -0.44999 -0.46657
-1.73641 -0.44837 -0.46631
-1.73676 -0.44700 -0.46632
-1.73618 -0.44539 -0.46607
-1.73470 -0.44355 -0.46537
-1.73317 -0.44171 -0.46487
-1.36912 -1.15125 -0.46394
-1.37002 -1.15017 -0.46394
-1.41322 -1.10910 -0.46629
-1.41181 -1.10620 -0.46554
-1.41264 -1.10506 -0.46573
-1.41278 -1.10339 -0.46530
-1.41059 -1.09990 -0.46429
-1.41069 -1.09819 -0.46405
-1.41384 -1.09887 -0.46480
-1.41623 -1.09894 -0.46531
-1.41710 -1.09783 -0.46531
-1.41715 -1.09609 -0.46526
-1.41878 -1.09557 -0.46551
-1.41968 -1.09449 -0.46532
-1.41900 -1.09219 -0.46482
-1.42139 -1.09225 -0.46533
-1.42306 -1.09176 -0.46539
-1.43974 -1.07433 -0.46659
-1.43980 -1.07262 -0.46634
-1.44860 -1.04935 -0.46426
-1.44943 -1.04820 -0.46426
-1.46247 -1.02805 -0.46445
-1.46328 -1.02690 -0.46445
-1.53550 -0.92070 -0.46590
-1.53377 -0.91802 -0.46496
-1.54514 -0.89690 -0.46457
-1.54668 -0.89617 -0.46483
-1.54910 -0.86843 -0.46187
-1.47711 -0.82654 -0.44041
-1.35560 -0.75434 -0.40365
-1.35450 -0.75233 -0.40315
-1.35682 -0.75222 -0.40349
-1.35738 -0.75113 -0.40366
-1.35797 -0.75006 -0.40366
-1.35856 -0.74899 -0.40367
-1.35915 -0.74791 -0.40367
-1.35974 -0.74684 -0.40367
-1.36029 -0.74575 -0.40384
-1.36087 -0.74467 -0.40385
-1.36146 -0.74360 -0.40385
-1.36031 -0.74158 -0.40351
-1.36004 -0.74004 -0.40326
-1.36066 -0.73899 -0.40310
-1.36121 -0.73789 -0.40327
-1.36268 -0.73730 -0.40336
-1.36581 -0.73760 -0.40412
-1.36271 -0.73316 -0.40286
-1.36158 -0.73117 -0.40236
-1.36301 -0.73056 -0.40262
-1.36273 -0.72903 -0.40237
-1.36159 -0.72705 -0.40187
-1.36135 -0.72554 -0.40146
-1.36106 -0.72402 -0.40121
-1.36248 -0.72340 -0.40146
-1.36476 -0.72324 -0.40197
-1.36276 -0.72081 -0.40121
-1.36076 -0.71838 -0.40046
-1.36221 -0.71778 -0.40055
-1.36620 -0.71851 -0.40156
-1.36677 -0.71744 -0.40157
-1.36219 -0.71367 -0.40006
-1.36017 -0.71125 -0.39931
-1.36498 -0.71240 -0.40073
-1.36983 -0.71357 -0.40199
-1.36494 -0.70829 -0.40024
-1.37636 -0.71148 -0.40327
-1.37000 -0.70683 -0.40142
-1.37056 -0.70575 -0.40142
-1.37197 -0.70512 -0.40168
-1.37424 -0.70492 -0.40218
-1.37566 -0.70428 -0.40244
-1.37531 -0.70274 -0.40235
-1.37586 -0.70166 -0.40236
-1.37555 -0.70014 -0.40211
-1.37524 -0.69862 -0.40186
-1.37578 -0.69754 -0.40186
-1.37637 -0.69648 -0.40170
-1.37778 -0.69583 -0.40196
-1.37832 -0.69475 -0.40196
-1.37887 -0.69367 -0.40196
-1.37855 -0.69215 -0.40171
-1.37909 -0.69107 -0.40171
-1.37963 -0.68998 -0.40172
-1.37934 -0.68849 -0.40130
-1.37985 -0.68738 -0.40147
-1.38038 -0.68630 -0.40148
-1.38183 -0.68566 -0.40157
-1.38237 -0.68458 -0.40157
-1.38286 -0.68347 -0.40174
-1.38253 -0.68196 -0.40149
-1.38307 -0.68087 -0.40149
-1.38360 -0.67978 -0.40149
-1.38935 -0.68125 -0.40301
-1.38553 -0.67803 -0.40175
-1.38081 -0.67438 -0.40041
-1.38308 -0.67414 -0.40091
-1.38187 -0.67221 -0.40041
-1.37891 -0.66943 -0.39941
-1.37944 -0.66835 -0.39941
-1.38166 -0.66809 -0.40008
-1.38306 -0.66742 -0.40033
-1.38445 -0.66675 -0.40059
-1.38672 -0.66650 -0.40110
-1.38550 -0.66458 -0.40060
-1.38427 -0.66265 -0.40009
-1.38483 -0.66158 -0.39993
-1.38531 -0.66048 -0.40010
-1.38499 -0.65899 -0.39969
-1.38726 -0.65873 -0.40019
-1.38777 -0.65764 -0.40020
-1.38479 -0.65490 -0.39919
-1.38359 -0.65300 -0.39853
-1.38761 -0.65356 -0.39954
-1.38637 -0.65165 -0.39904
-1.38337 -0.64892 -0.39803
-1.39177 -0.65152 -0.40030
-1.39057 -0.64963 -0.39964
-1.39107 -0.64853 -0.39964
-1.39422 -0.64867 -0.40040
-1.39560 -0.64798 -0.40065
-1.39435 -0.64607 -0.40015
-1.39398 -0.64456 -0.39990
-1.39445 -0.64345 -0.40007
-1.39407 -0.64195 -0.39982
-1.39458 -0.64085 -0.39982
-1.39684 -0.64057 -0.40033
-1.39822 -0.63987 -0.40059
-1.39780 -0.63835 -0.40050
-1.39742 -0.63685 -0.40025
-1.39792 -0.63575 -0.40026
-1.39926 -0.63504 -0.40068
-1.40064 -0.63434 -0.40093
-1.40114 -0.63324 -0.40093
-1.40079 -0.63175 -0.40052
-1.40036 -0.63024 -0.40043
-1.40086 -0.62914 -0.40044
-1.40135 -0.62803 -0.40044
-1.40277 -0.62734 -0.40053
-1.40326 -0.62624 -0.40053
-1.40287 -0.62474 -0.40029
-1.40247 -0.62325 -0.40004
-1.40473 -0.62293 -0.40054
-1.40876 -0.62339 -0.40156
-1.40132 -0.61878 -0.39913
-1.39827 -0.61611 -0.39812
-1.39963 -0.61540 -0.39837
-1.40096 -0.61467 -0.39879
-1.40056 -0.61318 -0.39854
-1.40197 -0.61249 -0.39864
-1.40237 -0.61135 -0.39897
-1.40196 -0.60986 -0.39872
-1.40159 -0.60839 -0.39830
-1.40296 -0.60767 -0.39856
-1.40343 -0.60657 -0.39856
-1.40298 -0.60506 -0.39848
-1.40168 -0.60319 -0.39797
-1.40393 -0.60285 -0.39848
-1.40529 -0.60213 -0.39874
-1.40488 -0.60064 -0.39849
-1.40442 -0.59914 -0.39840
-1.40667 -0.59879 -0.39891
-1.40985 -0.59884 -0.39950
-1.41121 -0.59811 -0.39976
-1.40808 -0.59547 -0.39892
-1.40498 -0.59286 -0.39791
-1.40816 -0.59290 -0.39851
-1.41397 -0.59404 -0.40002
-1.41266 -0.59218 -0.39952
-1.41312 -0.59107 -0.39953
-1.41358 -0.58995 -0.39953
-1.41319 -0.58849 -0.39911
-1.41451 -0.58773 -0.39953
-1.41501 -0.58663 -0.39937
-1.41547 -0.58552 -0.39938
-1.41503 -0.58404 -0.39913
-1.41549 -0.58292 -0.39913
-1.41595 -0.58181 -0.39913
-1.41645 -0.58071 -0.39897
-1.41597 -0.57922 -0.39889
-1.41736 -0.57848 -0.39898
-1.41781 -0.57737 -0.39898
-1.41826 -0.57625 -0.39898
-1.41688 -0.57439 -0.39865
-1.41733 -0.57328 -0.39865
-1.42047 -0.57325 -0.39941
-1.42088 -0.57212 -0.39958
-1.42133 -0.57100 -0.39958
-1.42084 -0.56950 -0.39949
-1.42223 -0.56876 -0.39958
-1.42263 -0.56763 -0.39975
-1.42308 -0.56651 -0.39975
-1.42083 -0.56432 -0.39900
-1.42397 -0.56427 -0.39976
-1.42171 -0.56208 -0.39900
-1.41765 -0.55919 -0.39775
-1.41899 -0.55842 -0.39800
-1.42217 -0.55838 -0.39860
-1.42081 -0.55656 -0.39810
-1.41944 -0.55474 -0.39759
-1.41988 -0.55362 -0.39760
-1.42121 -0.55285 -0.39785
-1.42165 -0.55173 -0.39786
-1.42302 -0.55098 -0.39795
-1.42251 -0.54950 -0.39786
-1.42023 -0.54734 -0.39711
-1.42160 -0.54658 -0.39720
-1.42380 -0.54614 -0.39787
-1.42513 -0.54536 -0.39813
-1.42650 -0.54460 -0.39822
-1.42780 -0.54381 -0.39864
-1.42551 -0.54166 -0.39788
-1.42235 -0.53918 -0.39671
-1.42360 -0.53837 -0.39729
-1.42674 -0.53827 -0.39805
-1.42630 -0.53683 -0.39764
-1.43393 -0.53841 -0.39983
-1.43072 -0.53592 -0.39882
-1.42933 -0.53412 -0.39832
-1.43156 -0.53367 -0.39883
-1.43380 -0.53322 -0.39933
-1.43327 -0.53174 -0.39925
-1.43187 -0.52994 -0.39875
-1.43229 -0.52881 -0.39875
-1.43452 -0.52834 -0.39926
-1.43494 -0.52721 -0.39926
-1.43539 -0.52609 -0.39910
-1.43580 -0.52496 -0.39910
-1.43622 -0.52383 -0.39910
-1.43663 -0.52270 -0.39911
-1.43613 -0.52123 -0.39886
-1.43745 -0.52043 -0.39911
-1.43786 -0.51929 -0.39912
-1.43831 -0.51817 -0.39896
-1.43781 -0.51671 -0.39871
-1.43730 -0.51525 -0.39846
-1.43771 -0.51411 -0.39846
-1.43906 -0.51332 -0.39855
-1.44038 -0.51251 -0.39881
-1.43987 -0.51105 -0.39856
-1.43936 -0.50959 -0.39831
-1.44067 -0.50877 -0.39856
-1.44103 -0.50762 -0.39873
-1.44143 -0.50649 -0.39873
-1.44183 -0.50535 -0.39874
-1.44314 -0.50453 -0.39899
-1.44354 -0.50339 -0.39899
-1.44393 -0.50225 -0.39900
-1.44429 -0.50110 -0.39916
-1.44468 -0.49996 -0.39917
-1.44599 -0.49913 -0.39942
-1.44543 -0.49766 -0.39934
-1.44582 -0.49652 -0.39934
-1.44621 -0.49538 -0.39934
-1.44568 -0.49393 -0.39909
-1.44607 -0.49279 -0.39909
-1.44738 -0.49196 -0.39935
-1.45147 -0.49207 -0.40020
-1.62412 -0.54632 -0.44746
-1.69571 -0.54520 -0.46539
-1.69614 -0.54386 -0.46539
-1.71113 -0.52199 -0.46729
-1.72352 -0.45667 -0.46647
-1.72393 -0.45532 -0.46627
-1.72428 -0.45396 -0.46628
-1.72277 -0.45211 -0.46577
-1.72219 -0.45050 -0.46552
-1.72442 -0.44963 -0.46602
-1.72571 -0.44851 -0.46628
-1.72606 -0.44715 -0.46628
-1.72454 -0.44531 -0.46577
-1.72681 -0.44444 -0.46609
-1.72810 -0.44332 -0.46634
-1.72751 -0.44172 -0.46609
-1.72416 -0.43941 -0.46489
-1.72263 -0.43757 -0.46438
-1.36656 -1.14909 -0.46491
-1.38111 -1.12840 -0.46465
-1.38199 -1.12731 -0.46466
-1.40293 -1.10103 -0.46493
-1.40376 -1.09990 -0.46513
-1.40615 -1.09998 -0.46563
-1.40853 -1.10007 -0.46614
-1.41016 -1.09956 -0.46640
-1.40877 -1.09670 -0.46545
-1.40734 -1.09381 -0.46470
-1.40972 -1.09389 -0.46521
-1.41445 -1.09578 -0.46628
-1.41377 -1.09348 -0.46578
-1.41080 -1.08941 -0.46452
-1.41166 -1.08830 -0.46453
-1.41634 -1.09015 -0.46579
-1.41720 -1.08903 -0.46579
-1.41882 -1.08851 -0.46605
-1.43556 -1.06946 -0.46681
-1.44424 -1.04619 -0.46510
-1.44506 -1.04505 -0.46510
-1.45888 -1.02725 -0.46560
-1.46210 -1.02779 -0.46617
-1.46370 -1.02719 -0.46642
-1.47329 -1.00300 -0.46516
-1.47248 -1.00075 -0.46466
-1.53090 -0.91630 -0.46592
-1.54211 -0.89515 -0.46611
-1.54449 -0.89490 -0.46662
-1.35530 -0.75417 -0.40498
-1.35416 -0.75214 -0.40464
-1.35641 -0.75199 -0.40532
-1.35784 -0.75139 -0.40557
-1.35844 -0.75032 -0.40558
-1.35818 -0.74878 -0.40533
-1.35877 -0.74770 -0.40533
-1.35936 -0.74663 -0.40533
-1.35821 -0.74461 -0.40500
-1.36053 -0.74449 -0.40534
-1.36193 -0.74386 -0.40576
-1.36252 -0.74278 -0.40576
-1.36225 -0.74124 -0.40551
-1.36117 -0.73926 -0.40485
-1.36090 -0.73773 -0.40459
-1.36148 -0.73665 -0.40460
-1.36203 -0.73556 -0.40477
-1.36516 -0.73586 -0.40553
-1.36294 -0.73190 -0.40436
-1.36185 -0.72994 -0.40369
-1.36413 -0.72978 -0.40420
-1.35958 -0.72597 -0.40268
-1.35844 -0.72399 -0.40218
-1.35901 -0.72293 -0.40218
-1.36129 -0.72276 -0.40269
-1.36438 -0.72303 -0.40362
-1.36669 -0.72289 -0.40396
-1.36641 -0.72136 -0.40371
-1.36351 -0.71846 -0.40287
-1.36407 -0.71739 -0.40287
-1.36806 -0.71812 -0.40389
-1.36862 -0.71704 -0.40389
-1.36318 -0.71283 -0.40212
-1.36117 -0.71042 -0.40137
-1.36430 -0.71069 -0.40213
-1.36795 -0.70986 -0.40306
-1.36593 -0.70745 -0.40230
-1.37564 -0.70974 -0.40484
-1.37017 -0.70556 -0.40307
-1.37073 -0.70448 -0.40307
-1.37214 -0.70384 -0.40333
-1.37441 -0.70365 -0.40384
-1.37497 -0.70257 -0.40384
-1.37465 -0.70105 -0.40359
-1.37610 -0.70042 -0.40368
-1.37665 -0.69934 -0.40369
-1.37548 -0.69739 -0.40318
-1.37689 -0.69674 -0.40344
-1.37833 -0.69612 -0.40353
-1.37802 -0.69460 -0.40328
-1.37770 -0.69308 -0.40303
-1.37737 -0.69156 -0.40278
-1.37792 -0.69048 -0.40278
-1.37932 -0.68983 -0.40304
-1.37986 -0.68875 -0.40304
-1.38127 -0.68809 -0.40330
-1.38090 -0.68656 -0.40321
-1.38054 -0.68502 -0.40313
-1.38111 -0.68396 -0.40296
-1.38169 -0.68289 -0.40280
-1.38128 -0.68134 -0.40288
-1.38094 -0.67983 -0.40263
-1.38152 -0.67876 -0.40247
-1.38379 -0.67853 -0.40298
-1.39123 -0.68082 -0.40517
-1.38012 -0.67270 -0.40163
-1.38152 -0.67204 -0.40189
-1.38379 -0.67180 -0.40240
-1.38257 -0.66987 -0.40190
-1.38135 -0.66794 -0.40139
-1.38192 -0.66687 -0.40123
-1.38331 -0.66620 -0.40149
-1.38296 -0.66470 -0.40124
-1.38348 -0.66361 -0.40124
-1.38400 -0.66252 -0.40124
-1.38365 -0.66102 -0.40099
-1.38417 -0.65993 -0.40100
-1.38556 -0.65926 -0.40125
-1.38607 -0.65817 -0.40125
-1.38572 -0.65667 -0.40101
-1.38536 -0.65516 -0.40075
-1.38674 -0.65449 -0.40101
-1.38813 -0.65381 -0.40127
-1.38777 -0.65231 -0.40102
-1.38565 -0.64999 -0.40026
-1.38967 -0.65054 -0.40128
-1.39364 -0.65107 -0.40246
-1.39240 -0.64915 -0.40195
-1.39112 -0.64722 -0.40161
-1.39166 -0.64615 -0.40145
-1.39392 -0.64587 -0.40196
-1.39527 -0.64516 -0.40238
-1.39490 -0.64366 -0.40213
-1.39540 -0.64256 -0.40213
-1.39591 -0.64147 -0.40214
-1.39553 -0.63997 -0.40189
-1.39603 -0.63887 -0.40189
-1.39745 -0.63819 -0.40198
-1.39703 -0.63667 -0.40190
-1.39665 -0.63518 -0.40164
-1.39719 -0.63410 -0.40148
-1.39945 -0.63380 -0.40199
-1.40078 -0.63308 -0.40241
-1.40048 -0.63161 -0.40183
-1.40093 -0.63049 -0.40200
-1.40143 -0.62939 -0.40201
-1.40196 -0.62831 -0.40184
-1.40069 -0.62641 -0.40134
-1.40118 -0.62531 -0.40134
-1.40167 -0.62421 -0.40135
-1.40128 -0.62271 -0.40110
-1.40000 -0.62083 -0.40059
-1.40048 -0.61972 -0.40060
-1.40628 -0.62097 -0.40212
-1.40411 -0.61869 -0.40136
-1.39840 -0.61486 -0.39959
-1.39711 -0.61298 -0.39909
-1.40025 -0.61305 -0.39985
-1.40158 -0.61232 -0.40027
-1.40294 -0.61160 -0.40053
-1.40342 -0.61050 -0.40053
-1.40124 -0.60823 -0.39977
-1.40172 -0.60713 -0.39978
-1.40304 -0.60640 -0.40020
-1.40348 -0.60528 -0.40036
-1.40306 -0.60379 -0.40011
-1.40358 -0.60270 -0.39995
-1.40672 -0.60274 -0.40071
-1.40812 -0.60203 -0.40081
-1.40681 -0.60016 -0.40030
-1.40546 -0.59828 -0.39996
-1.40682 -0.59755 -0.40022
-1.40729 -0.59645 -0.40022
-1.40691 -0.59498 -0.39981
-1.40738 -0.59387 -0.39981
-1.41408 -0.59539 -0.40159
-1.41187 -0.59316 -0.40083
-1.40966 -0.59092 -0.40007
-1.41013 -0.58981 -0.40008
-1.41063 -0.58872 -0.39992
-1.41109 -0.58761 -0.39992
-1.41151 -0.58648 -0.40009
-1.41465 -0.58649 -0.40085
-1.41511 -0.58537 -0.40085
-1.41557 -0.58426 -0.40085
-1.41514 -0.58278 -0.40060
-1.41645 -0.58201 -0.40102
-1.41691 -0.58090 -0.40103
-1.41736 -0.57978 -0.40103
-1.41782 -0.57867 -0.40103
-1.41827 -0.57755 -0.40103
-1.41872 -0.57644 -0.40104
-1.41645 -0.57422 -0.40044
-1.41694 -0.57312 -0.40028
-1.42004 -0.57307 -0.40121
-1.42049 -0.57195 -0.40121
-1.42004 -0.57048 -0.40096
-1.41869 -0.56864 -0.40046
-1.42093 -0.56824 -0.40097
-1.42138 -0.56712 -0.40097
-1.42007 -0.56531 -0.40030
-1.42051 -0.56419 -0.40031
-1.42275 -0.56378 -0.40082
-1.42589 -0.56373 -0.40158
-1.42273 -0.56119 -0.40057
-1.42051 -0.55902 -0.39965
-1.42185 -0.55826 -0.39991
-1.42049 -0.55643 -0.39940
-1.42002 -0.55497 -0.39915
-1.42050 -0.55386 -0.39899
-1.41999 -0.55238 -0.39890
-1.42317 -0.55233 -0.39950
-1.42541 -0.55191 -0.40001
-1.42223 -0.54939 -0.39900
-1.41991 -0.54721 -0.39841
-1.42215 -0.54679 -0.39892
-1.42529 -0.54671 -0.39968
-1.42572 -0.54559 -0.39968
-1.42615 -0.54447 -0.39969
-1.42748 -0.54369 -0.39994
-1.42696 -0.54221 -0.39986
-1.42467 -0.54005 -0.39910
-1.42328 -0.53825 -0.39859
-1.42548 -0.53780 -0.39927
-1.42692 -0.53706 -0.39903
-1.42734 -0.53594 -0.39904
-1.43131 -0.53614 -0.40038
-1.43169 -0.53500 -0.40055
-1.43120 -0.53354 -0.40030
-1.43257 -0.53277 -0.40039
-1.43208 -0.53130 -0.40014
-1.43159 -0.52983 -0.39989
-1.43201 -0.52870 -0.39989
-1.43333 -0.52791 -0.40015
-1.43375 -0.52678 -0.40015
-1.43511 -0.52599 -0.40024
-1.43548 -0.52485 -0.40041
-1.43590 -0.52371 -0.40041
-1.43544 -0.52226 -0.40000
-1.43581 -0.52111 -0.40016
-1.43626 -0.52000 -0.40000
-1.43754 -0.51918 -0.40042
-1.43795 -0.51804 -0.40043
-1.43835 -0.51691 -0.40043
-1.43789 -0.51546 -0.40002
-1.43734 -0.51399 -0.39993
-1.43593 -0.51220 -0.39942
-1.43724 -0.51139 -0.39968
-1.43943 -0.51089 -0.40036
-1.44074 -0.51008 -0.40061
-1.44118 -0.50896 -0.40045
-1.44154 -0.50780 -0.40062
-1.44194 -0.50667 -0.40062
-1.44143 -0.50521 -0.40037
-1.44087 -0.50374 -0.40028
-1.44218 -0.50292 -0.40054
-1.44349 -0.50210 -0.40080
-1.44392 -0.50097 -0.40064
-1.44432 -0.49983 -0.40064
-1.44563 -0.49901 -0.40089
-1.44510 -0.49755 -0.40064
-1.44550 -0.49641 -0.40065
-1.44589 -0.49527 -0.40065
-1.44628 -0.49413 -0.40065
-1.44670 -0.49300 -0.40049
-1.44709 -0.49186 -0.40049
-1.44844 -0.49104 -0.40059
-1.62747 -0.54745 -0.44975
-1.69210 -0.56770 -0.46749
-1.71704 -0.45350 -0.46583
-1.71740 -0.45215 -0.46583
-1.71869 -0.45104 -0.46609
-1.71905 -0.44968 -0.46609
-1.71940 -0.44832 -0.46609
-1.71882 -0.44672 -0.46584
-1.72104 -0.44585 -0.46635
-1.72327 -0.44498 -0.46685
-1.72174 -0.44314 -0.46635
-1.71928 -0.44106 -0.46559
-1.72056 -0.43994 -0.46584
-1.72185 -0.43882 -0.46609
-1.71938 -0.43675 -0.46533
-1.71879 -0.43515 -0.46508
-1.37938 -1.12699 -0.46529
-1.37880 -1.12471 -0.46460
-1.39118 -1.10599 -0.46472
-1.39284 -1.10553 -0.46479
-1.39447 -1.10504 -0.46504
-1.40204 -1.09855 -0.46557
-1.40294 -1.09748 -0.46538
-1.40075 -1.09399 -0.46438
-1.40237 -1.09349 -0.46463
-1.40472 -1.09354 -0.46533
-1.40405 -1.09125 -0.46483
-1.40414 -1.08956 -0.46458
-1.40652 -1.08964 -0.46509
-1.40891 -1.08972 -0.46560
-1.40896 -1.08799 -0.46554
-1.40832 -1.08573 -0.46485
-1.40913 -1.08459 -0.46504
-1.41075 -1.08407 -0.46530
-1.41083 -1.08238 -0.46505
-1.45315 -1.02150 -0.46453
-1.45554 -1.02146 -0.46504
-1.47221 -1.00397 -0.46649
-1.47064 -1.00120 -0.46555
-1.47908 -0.97818 -0.46409
-1.47985 -0.97701 -0.46409
-1.49686 -0.95800 -0.46497
-1.50002 -0.95836 -0.46593
-1.51264 -0.93810 -0.46636
-1.50927 -0.93436 -0.46510
-1.53203 -0.89091 -0.46408
-1.53855 -0.89308 -0.46605
-1.35943 -0.75788 -0.40799
-1.35326 -0.75304 -0.40597
-1.35470 -0.75244 -0.40622
-1.35614 -0.75184 -0.40648
-1.35758 -0.75124 -0.40674
-1.35732 -0.74970 -0.40648
-1.35791 -0.74863 -0.40649
-1.35854 -0.74758 -0.40632
-1.35824 -0.74602 -0.40624
-1.35802 -0.74450 -0.40582
-1.36030 -0.74436 -0.40633
-1.36089 -0.74329 -0.40634
-1.36151 -0.74223 -0.40617
-1.36210 -0.74116 -0.40618
-1.36268 -0.74008 -0.40618
-1.36323 -0.73899 -0.40635
