-1.45928 -0.47937 -0.46554
-1.46057 -0.47851 -0.46584
-1.46276 -0.47796 -0.46642
-1.46314 -0.47680 -0.46642
-1.46260 -0.47535 -0.46614
-1.46116 -0.47360 -0.46556
-1.46335 -0.47304 -0.46614
-1.46550 -0.47246 -0.46689
-1.46592 -0.47132 -0.46673
-1.46537 -0.46987 -0.46644
-1.46483 -0.46842 -0.46615
-1.46520 -0.46726 -0.46616
-1.46466 -0.46582 -0.46587
-1.46598 -0.46497 -0.46599
-1.46817 -0.46439 -0.46658
-1.46676 -0.46267 -0.46583
-1.46530 -0.46093 -0.46526
-1.47018 -0.46120 -0.46688
-1.46780 -0.45918 -0.46601
-1.46730 -0.45775 -0.46555
-1.47131 -0.45773 -0.46672
-1.47167 -0.45657 -0.46672
-1.46929 -0.45456 -0.46586
-1.47051 -0.45366 -0.46631
-1.47361 -0.45335 -0.46719
-1.47122 -0.45134 -0.46632
-1.46883 -0.44934 -0.46545
-1.47102 -0.44874 -0.46604
-1.47407 -0.44840 -0.46708
-1.47534 -0.44752 -0.46737
-1.47477 -0.44607 -0.46708
-1.47512 -0.44491 -0.46709
-1.47547 -0.44375 -0.46709
-1.47857 -0.44341 -0.46796
-1.47800 -0.44197 -0.46768
-1.47651 -0.44025 -0.46710
-1.47686 -0.43909 -0.46710
-1.47812 -0.43819 -0.46740
-1.47480 -0.43594 -0.46624
-1.47330 -0.43424 -0.46566
-1.47737 -0.43417 -0.46666
-1.47495 -0.43219 -0.46579
-1.47529 -0.43103 -0.46579
-1.47747 -0.43040 -0.46638
-1.47964 -0.42977 -0.46696
-1.48003 -0.42862 -0.46680
-1.48032 -0.42744 -0.46697
-1.48636 -0.41271 -0.46792
-1.48392 -0.41077 -0.46705
-1.48424 -0.40960 -0.46706
-1.48733 -0.40919 -0.46793
-1.49679 -0.38902 -0.46876
-1.49524 -0.38736 -0.46818
-1.49184 -0.38522 -0.46702
-1.49595 -0.36871 -0.46720
-1.49439 -0.36707 -0.46662
-1.49467 -0.36589 -0.46662
-1.49403 -0.36449 -0.46633
-1.21245 -0.96235 -0.46747
-1.21325 -0.96143 -0.46730
-1.21400 -0.96048 -0.46731
-1.22205 -0.93907 -0.46568
-1.22278 -0.93811 -0.46568
-1.22584 -0.93893 -0.46638
-1.22722 -0.93236 -0.46553
-1.22719 -0.93082 -0.46524
-1.22868 -0.93044 -0.46553
-1.22941 -0.92947 -0.46554
-1.22861 -0.92735 -0.46496
-1.22858 -0.92581 -0.46468
-1.23011 -0.92545 -0.46480
-1.23309 -0.92618 -0.46584
-1.23458 -0.92578 -0.46613
-1.23377 -0.92366 -0.46556
-1.23450 -0.92270 -0.46556
-1.23672 -0.92284 -0.46631
-1.23594 -0.92075 -0.46557
-1.23436 -0.91807 -0.46470
-1.23739 -0.91881 -0.46557
-1.23965 -0.91898 -0.46615
-1.28811 -0.85627 -0.46802
-1.29900 -0.83282 -0.46642
-1.30042 -0.83228 -0.46688
-1.31401 -0.81062 -0.46694
-1.32509 -0.79028 -0.46705
-1.32736 -0.79021 -0.46763
-1.32967 -0.79017 -0.46804
-1.33697 -0.76623 -0.46637
-1.33998 -0.76655 -0.46758
-1.34552 -0.74318 -0.46527
-1.34355 -0.74071 -0.46457
-1.34753 -0.74152 -0.46557
-1.35593 -0.71992 -0.46476
-1.35898 -0.72017 -0.46580
-1.36213 -0.72047 -0.46650
-1.36720 -0.69589 -0.46487
-1.37031 -0.69612 -0.46574
-1.38364 -0.67576 -0.46667
-1.37900 -0.67215 -0.46493
-1.37949 -0.67105 -0.46511
-1.39554 -0.65328 -0.46669
-1.39605 -0.65219 -0.46669
-1.39482 -0.65028 -0.46612
-1.40252 -0.62856 -0.46593
-1.40389 -0.62784 -0.46622
-1.40525 -0.62713 -0.46652
-1.41264 -0.60528 -0.46616
-1.41136 -0.60342 -0.46559
-1.41267 -0.60266 -0.46605
-1.42472 -0.58410 -0.46676
-1.42248 -0.58188 -0.46606
-1.42032 -0.57969 -0.46503
-1.41984 -0.57820 -0.46491
-1.42828 -0.55949 -0.46541
-1.43233 -0.55977 -0.46641
-1.43272 -0.55863 -0.46658
-1.43137 -0.55681 -0.46600
-1.43181 -0.55568 -0.46601
-1.43408 -0.55526 -0.46642
-1.43266 -0.55083 -0.46573
-1.43398 -0.55004 -0.46602
-1.42994 -0.54721 -0.46457
-1.42769 -0.54506 -0.46371
-1.42896 -0.54426 -0.46417
-1.43123 -0.54383 -0.46458
-1.43250 -0.54302 -0.46504
-1.43472 -0.54257 -0.46563
-1.43693 -0.54212 -0.46621
-1.43378 -0.53964 -0.46505
-1.43151 -0.53750 -0.46418
-1.43373 -0.53705 -0.46477
-1.43858 -0.53758 -0.46639
-1.44080 -0.53712 -0.46697
-1.44037 -0.53566 -0.46652
-1.43895 -0.53385 -0.46611
-1.44121 -0.53339 -0.46653
-1.44253 -0.53259 -0.46682
-1.44030 -0.53047 -0.46578
-1.43982 -0.52901 -0.46550
-1.44019 -0.52785 -0.46567
-1.43795 -0.52575 -0.46463
-1.43837 -0.52461 -0.46464
-1.44148 -0.52446 -0.46551
-1.44549 -0.52463 -0.46667
-1.44320 -0.52251 -0.46581
-1.44186 -0.52074 -0.46506
-1.44317 -0.51992 -0.46535
-1.44628 -0.51976 -0.46623
-1.44579 -0.51829 -0.46594
-1.44439 -0.51651 -0.46536
-1.44570 -0.51569 -0.46566
-1.44520 -0.51423 -0.46537
-1.44561 -0.51309 -0.46537
-1.44596 -0.51193 -0.46554
-1.44817 -0.51142 -0.46613
-1.44672 -0.50963 -0.46572
-1.44712 -0.50848 -0.46572
-1.44752 -0.50734 -0.46572
-1.44973 -0.50683 -0.46631
-1.44832 -0.50506 -0.46573
-1.44871 -0.50392 -0.46573
-1.44911 -0.50277 -0.46573
-1.44860 -0.50131 -0.46545
-1.44628 -0.49923 -0.46458
-1.44577 -0.49778 -0.46429
-1.45069 -0.49819 -0.46575
-1.45203 -0.49738 -0.46587
-1.45061 -0.49561 -0.46530
-1.45100 -0.49447 -0.46530
-1.45406 -0.49423 -0.46634
-1.45631 -0.49371 -0.46676
-1.45488 -0.49195 -0.46618
-1.45532 -0.49082 -0.46601
-1.45566 -0.48965 -0.46619
-1.45423 -0.48790 -0.46561
-1.45461 -0.48675 -0.46561
-1.45676 -0.48619 -0.46636
-1.45714 -0.48504 -0.46636
-1.45576 -0.48330 -0.46562
-1.45700 -0.48244 -0.46608
-1.46010 -0.48219 -0.46696
-1.45866 -0.48044 -0.46638
-1.45540 -0.47809 -0.46522
-1.46028 -0.47842 -0.46684
-1.46065 -0.47726 -0.46684
-1.45921 -0.47552 -0.46627
-1.46140 -0.47496 -0.46685
-1.46269 -0.47410 -0.46714
-1.46033 -0.47206 -0.46627
-1.45979 -0.47062 -0.46599
-1.46289 -0.47034 -0.46686
-1.46417 -0.46948 -0.46716
-1.46272 -0.46774 -0.46658
-1.46491 -0.46717 -0.46716
-1.46710 -0.46659 -0.46775
-1.46564 -0.46486 -0.46717
-1.46510 -0.46341 -0.46688
-1.46551 -0.46227 -0.46672
-1.46587 -0.46111 -0.46672
-1.46532 -0.45967 -0.46643
-1.46391 -0.45796 -0.46569
-1.46427 -0.45680 -0.46569
-1.46462 -0.45565 -0.46569
-1.46772 -0.45534 -0.46657
-1.46900 -0.45447 -0.46686
-1.46940 -0.45332 -0.46670
-1.47245 -0.45299 -0.46774
-1.47098 -0.45127 -0.46716
-1.46950 -0.44955 -0.46658
-1.46803 -0.44783 -0.46600
-1.46838 -0.44667 -0.46601
-1.46965 -0.44579 -0.46630
-1.47178 -0.44517 -0.46705
-1.47300 -0.44427 -0.46751
-1.47335 -0.44311 -0.46752
-1.47369 -0.44194 -0.46752
-1.47312 -0.44051 -0.46723
-1.47159 -0.43878 -0.46682
-1.47198 -0.43764 -0.46666
-1.47508 -0.43729 -0.46753
-1.47542 -0.43613 -0.46754
-1.47301 -0.43415 -0.46667
-1.47152 -0.43245 -0.46609
-1.47461 -0.43210 -0.46696
-1.47770 -0.43174 -0.46784
-1.47534 -0.42978 -0.46680
-1.48427 -0.41213 -0.46818
-1.48275 -0.41045 -0.46760
-1.48210 -0.40901 -0.46748
-1.48242 -0.40784 -0.46748
-1.48915 -0.36703 -0.46617
-1.48754 -0.36539 -0.46576
-1.49159 -0.36514 -0.46676
-1.49374 -0.36441 -0.46734
-1.20992 -0.96035 -0.46778
-1.20997 -0.95883 -0.46733
-1.22180 -0.93888 -0.46668
-1.22330 -0.93851 -0.46698
-1.22631 -0.93929 -0.46785
-1.22542 -0.93099 -0.46613
-1.22310 -0.92771 -0.46497
-1.22306 -0.92618 -0.46468
-1.22684 -0.92752 -0.46584
-1.23219 -0.93005 -0.46742
-1.23063 -0.92735 -0.46655
-1.22749 -0.92348 -0.46527
-1.22745 -0.92194 -0.46499
-1.23127 -0.92330 -0.46598
-1.23276 -0.92291 -0.46627
-1.23196 -0.92079 -0.46570
-1.23268 -0.91983 -0.46570
-1.23336 -0.91883 -0.46587
-1.23101 -0.91557 -0.46471
-1.23172 -0.91461 -0.46472
-1.23244 -0.91364 -0.46472
-1.32376 -0.78807 -0.46765
-1.33440 -0.76616 -0.46696
-1.33583 -0.76558 -0.46725
-1.34668 -0.74244 -0.46657
-1.35529 -0.71822 -0.46581
-1.35331 -0.71581 -0.46494
-1.36518 -0.69486 -0.46546
-1.36743 -0.69466 -0.46604
-1.37472 -0.67140 -0.46494
-1.37955 -0.67242 -0.46640
-1.39517 -0.65311 -0.46803
-1.39481 -0.65161 -0.46775
-1.40302 -0.62878 -0.46756
-1.40181 -0.62692 -0.46682
-1.40747 -0.60175 -0.46576
-1.42126 -0.58138 -0.46694
-1.42265 -0.58064 -0.46707
-1.42222 -0.57916 -0.46678
-1.41908 -0.57658 -0.46579
-1.41776 -0.57475 -0.46521
-1.41910 -0.57399 -0.46550
-1.41551 -0.56995 -0.46422
-1.41685 -0.56920 -0.46451
-1.41991 -0.56913 -0.46556
-1.42125 -0.56837 -0.46585
-1.41814 -0.56583 -0.46469
-1.41596 -0.56367 -0.46365
-1.41991 -0.56395 -0.46499
-1.42302 -0.56389 -0.46586
-1.42169 -0.56207 -0.46528
-1.42124 -0.56060 -0.46500
-1.42261 -0.55985 -0.46512
-1.42301 -0.55871 -0.46529
-1.42438 -0.55796 -0.46542
-1.42928 -0.55858 -0.46688
-1.43328 -0.55885 -0.46805
-1.43015 -0.55633 -0.46688
-1.42613 -0.55348 -0.46543
-1.42567 -0.55201 -0.46514
-1.42793 -0.55159 -0.46556
-1.42837 -0.55047 -0.46557
-1.42791 -0.54900 -0.46528
-1.42740 -0.54752 -0.46516
-1.42787 -0.54641 -0.46499
-1.42915 -0.54561 -0.46545
-1.42689 -0.54347 -0.46458
-1.42821 -0.54268 -0.46488
-1.43043 -0.54224 -0.46546
-1.43081 -0.54109 -0.46563
-1.43212 -0.54031 -0.46593
-1.43344 -0.53952 -0.46622
-1.43297 -0.53805 -0.46593
-1.43250 -0.53659 -0.46564
-1.43292 -0.53546 -0.46565
-1.43513 -0.53500 -0.46623
-1.43730 -0.53452 -0.46699
-1.43861 -0.53372 -0.46728
-1.43813 -0.53226 -0.46699
-1.43855 -0.53112 -0.46699
-1.43812 -0.52967 -0.46654
-1.43674 -0.52788 -0.46596
-1.43536 -0.52608 -0.46538
-1.43582 -0.52497 -0.46522
-1.43619 -0.52382 -0.46539
-1.43660 -0.52268 -0.46539
-1.43706 -0.52157 -0.46523
-1.44017 -0.52141 -0.46610
-1.44238 -0.52092 -0.46669
-1.44193 -0.51948 -0.46623
-1.44139 -0.51800 -0.46611
-1.44090 -0.51654 -0.46582
-1.43951 -0.51476 -0.46525
-1.43901 -0.51330 -0.46496
-1.44122 -0.51281 -0.46554
-1.44347 -0.51233 -0.46596
-1.44292 -0.51085 -0.46584
-1.44152 -0.50907 -0.46526
-1.44282 -0.50826 -0.46555
-1.44412 -0.50743 -0.46585
-1.44448 -0.50628 -0.46602
-1.44221 -0.50421 -0.46498
-1.44256 -0.50305 -0.46515
-1.44476 -0.50254 -0.46574
-1.44787 -0.50234 -0.46661
-1.44907 -0.50148 -0.46724
-1.44776 -0.49974 -0.46633
-1.44724 -0.49829 -0.46604
-1.44764 -0.49715 -0.46604
-1.44803 -0.49600 -0.46605
-1.44842 -0.49486 -0.46605
-1.45152 -0.49465 -0.46693
-1.45191 -0.49350 -0.46693
-1.45049 -0.49174 -0.46635
-1.45087 -0.49059 -0.46635
-1.45307 -0.49006 -0.46694
-1.45169 -0.48832 -0.46619
-1.45117 -0.48687 -0.46590
-1.45427 -0.48663 -0.46678
-1.45556 -0.48579 -0.46708
-1.45227 -0.48342 -0.46608
-1.45083 -0.48167 -0.46550
-1.45398 -0.48144 -0.46621
-1.45795 -0.48148 -0.46754
-1.45746 -0.48004 -0.46709
-1.45870 -0.47918 -0.46755
-1.46085 -0.47861 -0.46831
-1.46032 -0.47715 -0.46802
-1.45528 -0.47424 -0.46610
-1.45383 -0.47250 -0.46553
-1.45603 -0.47194 -0.46611
-1.45726 -0.47107 -0.46657
-1.45945 -0.47051 -0.46716
-1.45982 -0.46936 -0.46716
-1.46019 -0.46820 -0.46716
-1.46056 -0.46705 -0.46717
-1.46092 -0.46590 -0.46717
-1.46311 -0.46533 -0.46776
-1.46439 -0.46446 -0.46805
-1.46202 -0.46244 -0.46718
-1.46421 -0.46186 -0.46776
-1.46457 -0.46071 -0.46777
-1.46128 -0.45841 -0.46660
-1.46073 -0.45697 -0.46632
-1.46296 -0.45640 -0.46674
-1.46424 -0.45553 -0.46703
-1.46368 -0.45409 -0.46674
-1.46591 -0.45351 -0.46716
-1.46536 -0.45208 -0.46687
-1.46571 -0.45092 -0.46687
-1.47324 -0.43548 -0.46813
-1.46895 -0.43295 -0.46684
-1.47117 -0.43235 -0.46726
-1.48440 -0.36462 -0.46605
-1.48469 -0.36345 -0.46605
-1.48683 -0.36273 -0.46664
-1.16266 -0.99177 -0.46372
-1.16485 -0.99206 -0.46447
-1.21996 -0.93747 -0.46744
-1.21998 -0.93596 -0.46699
-1.22441 -0.93023 -0.46684
-1.22057 -0.92580 -0.46510
-1.22053 -0.92426 -0.46481
-1.22354 -0.92503 -0.46569
-1.22580 -0.92522 -0.46627
-1.22652 -0.92426 -0.46627
-1.22725 -0.92330 -0.46628
-1.22640 -0.92115 -0.46587
-1.22716 -0.92022 -0.46570
-1.22788 -0.91925 -0.46571
-1.22856 -0.91826 -0.46588
-1.22698 -0.91558 -0.46501
-1.22770 -0.91461 -0.46501
-1.22914 -0.91419 -0.46547
-1.23140 -0.91436 -0.46606
-1.23442 -0.91510 -0.46693
-1.23514 -0.91414 -0.46693
-1.24564 -0.89337 -0.46549
-1.24868 -0.89405 -0.46637
-1.34071 -0.74053 -0.46616
-1.34549 -0.74178 -0.46762
-1.36836 -0.69648 -0.46746
-1.36886 -0.69539 -0.46763
-1.37445 -0.67127 -0.46594
-1.37579 -0.67058 -0.46640
-1.39056 -0.65095 -0.46758
-1.39107 -0.64986 -0.46759
-1.39930 -0.62711 -0.46723
-1.39634 -0.62447 -0.46590
-1.39591 -0.62296 -0.46578
-1.40412 -0.60163 -0.46572
-1.40547 -0.60090 -0.46601
-1.40590 -0.59977 -0.46618
-1.40730 -0.59906 -0.46631
-1.40782 -0.59537 -0.46603
-1.40741 -0.59389 -0.46574
-1.40839 -0.59169 -0.46558
-1.40532 -0.58910 -0.46441
-1.40406 -0.58728 -0.46367
-1.40889 -0.58800 -0.46529
-1.41289 -0.58836 -0.46646
-1.41428 -0.58763 -0.46659
-1.41209 -0.58542 -0.46572
-1.40813 -0.58248 -0.46427
-1.40858 -0.58137 -0.46427
-1.41258 -0.58172 -0.46544
-1.41569 -0.58170 -0.46631
-1.41614 -0.58059 -0.46632
-1.41478 -0.57873 -0.46591
-1.41612 -0.57798 -0.46620
-1.41741 -0.57721 -0.46666
-1.41698 -0.57573 -0.46637
-1.41482 -0.57356 -0.46533
-1.41877 -0.57386 -0.46667
-1.41833 -0.57238 -0.46638
-1.41701 -0.57055 -0.46580
-1.41745 -0.56944 -0.46580
-1.41790 -0.56832 -0.46581
-1.41746 -0.56685 -0.46552
-1.41790 -0.56574 -0.46552
-1.42012 -0.56533 -0.46611
-1.41972 -0.56388 -0.46565
-1.41656 -0.56133 -0.46466
-1.41789 -0.56057 -0.46495
-1.42189 -0.56086 -0.46612
-1.42411 -0.56044 -0.46671
-1.42193 -0.55829 -0.46567
-1.42236 -0.55717 -0.46567
-1.42458 -0.55675 -0.46626
-1.42680 -0.55632 -0.46684
-1.42635 -0.55485 -0.46655
-1.42500 -0.55304 -0.46597
-1.42454 -0.55157 -0.46569
-1.42497 -0.55045 -0.46569
-1.42630 -0.54967 -0.46598
-1.42584 -0.54821 -0.46570
-1.42532 -0.54672 -0.46557
-1.42665 -0.54594 -0.46587
-1.42797 -0.54516 -0.46616
-1.42929 -0.54438 -0.46646
-1.42878 -0.54290 -0.46633
-1.42831 -0.54143 -0.46605
-1.42873 -0.54031 -0.46605
-1.42915 -0.53919 -0.46605
-1.43137 -0.53873 -0.46664
-1.43269 -0.53795 -0.46693
-1.43311 -0.53682 -0.46694
-1.43174 -0.53502 -0.46636
-1.43126 -0.53356 -0.46607
-1.43168 -0.53243 -0.46607
-1.43483 -0.53232 -0.46678
-1.43615 -0.53152 -0.46708
-1.43567 -0.53006 -0.46679
-1.43519 -0.52859 -0.46650
-1.43471 -0.52713 -0.46621
-1.43422 -0.52567 -0.46592
-1.43469 -0.52455 -0.46576
-1.43330 -0.52277 -0.46518
-1.43281 -0.52131 -0.46489
-1.43322 -0.52018 -0.46489
-1.43363 -0.51904 -0.46490
-1.43854 -0.51954 -0.46636
-1.43985 -0.51873 -0.46665
-1.44025 -0.51759 -0.46666
-1.44066 -0.51645 -0.46666
-1.44017 -0.51499 -0.46637
-1.43967 -0.51354 -0.46608
-1.43917 -0.51208 -0.46579
-1.44043 -0.51125 -0.46625
-1.44263 -0.51075 -0.46684
-1.44394 -0.50993 -0.46714
-1.44344 -0.50847 -0.46685
-1.44379 -0.50731 -0.46702
-1.44329 -0.50586 -0.46673
-1.44278 -0.50440 -0.46644
-1.44318 -0.50327 -0.46644
-1.44357 -0.50213 -0.46644
-1.44397 -0.50099 -0.46645
-1.44527 -0.50016 -0.46674
-1.44656 -0.49933 -0.46704
-1.44696 -0.49819 -0.46704
-1.44739 -0.49706 -0.46688
-1.44598 -0.49530 -0.46630
-1.44546 -0.49385 -0.46601
-1.44680 -0.49304 -0.46614
-1.44900 -0.49251 -0.46672
-1.44934 -0.49135 -0.46689
-1.44882 -0.48990 -0.46660
-1.44921 -0.48876 -0.46661
-1.44959 -0.48761 -0.46661
-1.44821 -0.48588 -0.46586
-1.44854 -0.48472 -0.46603
-1.45074 -0.48418 -0.46662
-1.45021 -0.48273 -0.46633
-1.45059 -0.48159 -0.46633
-1.45097 -0.48044 -0.46634
-1.45039 -0.47898 -0.46621
-1.45077 -0.47784 -0.46622
-1.45387 -0.47759 -0.46710
-1.45697 -0.47733 -0.46797
-1.45734 -0.47618 -0.46798
-1.45681 -0.47474 -0.46769
-1.45804 -0.47387 -0.46815
-1.46024 -0.47331 -0.46874
-1.46152 -0.47245 -0.46903
-1.45916 -0.47042 -0.46816
-1.45685 -0.46840 -0.46712
-1.45721 -0.46725 -0.46712
-1.46488 -0.46207 -0.46889
-1.46342 -0.46034 -0.46831
-1.45744 -0.45720 -0.46611
-1.45415 -0.45491 -0.46494
-1.45998 -0.45547 -0.46670
-1.46769 -0.45660 -0.46887
-1.47392 -0.43568 -0.46926
-1.47151 -0.43371 -0.46838
-1.46909 -0.43174 -0.46751
-1.48328 -0.36434 -0.46643
-1.48166 -0.36270 -0.46601
-1.48473 -0.36222 -0.46689
-1.16666 -0.99677 -0.46708
-1.16675 -0.99526 -0.46663
-1.18006 -0.97500 -0.46565
-1.18082 -0.97407 -0.46565
-1.21731 -0.92483 -0.46523
-1.21804 -0.92388 -0.46523
-1.22105 -0.92465 -0.46610
-1.22330 -0.92485 -0.46669
-1.22021 -0.92100 -0.46524
-1.21940 -0.91890 -0.46466
-1.22161 -0.91906 -0.46541
-1.22310 -0.91867 -0.46570
-1.22382 -0.91771 -0.46571
-1.22760 -0.91904 -0.46688
-1.22828 -0.91805 -0.46705
-1.22670 -0.91536 -0.46618
-1.22665 -0.91383 -0.46589
-1.22809 -0.91341 -0.46635
-1.22727 -0.91130 -0.46577
-1.22880 -0.91094 -0.46590
-1.24306 -0.89152 -0.46562
-1.24216 -0.88939 -0.46521
-1.25838 -0.87131 -0.46615
-1.26296 -0.87300 -0.46777
-1.26777 -0.84708 -0.46479
-1.27083 -0.84768 -0.46567
-1.27388 -0.84826 -0.46655
-1.34015 -0.73884 -0.46704
-1.36293 -0.69372 -0.46688
-1.36006 -0.69091 -0.46571
-1.37241 -0.67027 -0.46652
-1.37293 -0.66919 -0.46653
-1.38248 -0.64717 -0.46596
-1.38126 -0.64528 -0.46538
-1.38432 -0.64538 -0.46643
-1.38581 -0.63288 -0.46546
-1.38718 -0.63218 -0.46575
-1.38854 -0.63149 -0.46604
-1.38522 -0.62735 -0.46442
-1.38920 -0.62784 -0.46560
-1.38882 -0.62635 -0.46531
-1.38669 -0.62409 -0.46443
-1.38980 -0.62417 -0.46531
-1.39383 -0.62466 -0.46632
-1.39083 -0.62200 -0.46515
-1.38865 -0.61972 -0.46445
-1.39175 -0.61979 -0.46532
-1.39224 -0.61870 -0.46533
-1.39273 -0.61760 -0.46533
-1.39408 -0.61689 -0.46563
-1.39544 -0.61618 -0.46592
-1.39238 -0.61352 -0.46492
-1.38848 -0.61050 -0.46346
-1.38809 -0.60902 -0.46318
-1.39294 -0.60985 -0.46464
-1.39342 -0.60875 -0.46464
-1.39390 -0.60766 -0.46464
-1.39701 -0.60770 -0.46552
-1.40099 -0.60813 -0.46670
-1.40055 -0.60662 -0.46657
-1.39839 -0.60438 -0.46570
-1.39886 -0.60328 -0.46570
-1.39934 -0.60218 -0.46571
-1.39810 -0.60035 -0.46496
-1.40033 -0.60000 -0.46555
-1.40163 -0.59925 -0.46601
-1.40391 -0.59892 -0.46643
-1.40526 -0.59819 -0.46672
-1.40665 -0.59748 -0.46685
-1.40707 -0.59635 -0.46702
-1.40578 -0.59450 -0.46644
-1.40365 -0.59230 -0.46540
-1.40411 -0.59120 -0.46540
-1.40551 -0.59048 -0.46553
-1.40509 -0.58901 -0.46524
-1.40555 -0.58790 -0.46525
-1.40954 -0.58827 -0.46642
-1.40907 -0.58677 -0.46630
-1.40605 -0.58421 -0.46496
-1.40734 -0.58345 -0.46542
-1.41045 -0.58344 -0.46631
-1.40826 -0.58124 -0.46543
-1.40606 -0.57904 -0.46456
-1.40917 -0.57902 -0.46544
-1.41223 -0.57898 -0.46648
-1.41268 -0.57787 -0.46649
-1.41402 -0.57712 -0.46678
-1.41443 -0.57599 -0.46695
-1.41222 -0.57380 -0.46608
-1.41094 -0.57198 -0.46533
-1.41223 -0.57122 -0.46579
-1.41268 -0.57010 -0.46579
-1.41140 -0.56830 -0.46505
-1.41185 -0.56719 -0.46505
-1.41584 -0.56750 -0.46622
-1.41540 -0.56603 -0.46593
-1.41229 -0.56350 -0.46477
-1.41451 -0.56309 -0.46535
-1.41406 -0.56163 -0.46506
-1.41450 -0.56051 -0.46507
-1.41405 -0.55905 -0.46478
-1.41449 -0.55794 -0.46478
-1.41671 -0.55753 -0.46537
-1.41808 -0.55678 -0.46550
-1.41941 -0.55601 -0.46579
-1.41895 -0.55455 -0.46550
-1.41939 -0.55343 -0.46551
-1.42067 -0.55264 -0.46597
-1.42288 -0.55222 -0.46656
-1.42510 -0.55179 -0.46714
-1.42643 -0.55101 -0.46744
-1.42413 -0.54884 -0.46673
-1.42189 -0.54669 -0.46586
-1.42231 -0.54557 -0.46586
-1.42364 -0.54479 -0.46616
-1.42491 -0.54399 -0.46662
-1.42449 -0.54255 -0.46616
-1.42491 -0.54143 -0.46616
-1.42534 -0.54031 -0.46617
-1.42482 -0.53883 -0.46604
-1.42524 -0.53771 -0.46605
-1.42835 -0.53760 -0.46693
-1.42608 -0.53547 -0.46605
-1.42919 -0.53535 -0.46693
-1.43051 -0.53456 -0.46723
-1.42739 -0.53212 -0.46590
-1.42785 -0.53101 -0.46573
-1.43186 -0.53122 -0.46691
-1.43228 -0.53009 -0.46691
-1.43000 -0.52796 -0.46604
-1.43221 -0.52750 -0.46662
-1.43352 -0.52669 -0.46692
-1.43129 -0.52459 -0.46588
-1.42901 -0.52248 -0.46501
-1.43122 -0.52201 -0.46559
-1.43428 -0.52184 -0.46664
-1.43469 -0.52071 -0.46664
-1.43245 -0.51862 -0.46560
-1.43101 -0.51682 -0.46519
-1.43231 -0.51601 -0.46548
-1.43632 -0.51618 -0.46665
-1.43758 -0.51535 -0.46712
-1.43708 -0.51389 -0.46683
-1.43749 -0.51276 -0.46683
-1.43519 -0.51066 -0.46596
-1.43464 -0.50919 -0.46583
-1.43679 -0.50868 -0.46659
-1.44000 -0.50854 -0.46713
-1.43769 -0.50645 -0.46626
-1.43714 -0.50498 -0.46614
-1.43848 -0.50418 -0.46627
-1.43888 -0.50304 -0.46627
-1.43928 -0.50191 -0.46627
-1.44238 -0.50171 -0.46715
-1.44549 -0.50151 -0.46803
-1.44593 -0.50039 -0.46787
-1.44632 -0.49925 -0.46787
-1.44486 -0.49747 -0.46746
-1.44349 -0.49572 -0.46671
-1.44116 -0.49365 -0.46583
-1.44246 -0.49283 -0.46613
-1.44465 -0.49230 -0.46672
-1.44504 -0.49116 -0.46672
-1.44724 -0.49064 -0.46731
-1.45034 -0.49041 -0.46819
-1.44887 -0.48864 -0.46777
-1.44801 -0.48200 -0.46708
-1.44930 -0.48116 -0.46737
-1.44967 -0.48002 -0.46738
-1.44914 -0.47857 -0.46709
-1.45224 -0.47832 -0.46797
-1.45350 -0.45596 -0.46593
-1.45203 -0.45424 -0.46535
-1.45604 -0.45424 -0.46653
-1.47300 -0.36059 -0.46437
-1.47421 -0.35965 -0.46467
-1.17532 -0.97109 -0.46523
-1.17830 -0.97199 -0.46611
-1.18124 -0.97286 -0.46716
-1.19120 -0.95160 -0.46513
-1.19344 -0.95185 -0.46572
-1.22076 -0.92595 -0.46773
-1.21768 -0.92210 -0.46627
-1.21611 -0.91941 -0.46540
-1.21759 -0.91903 -0.46570
-1.21908 -0.91865 -0.46599
-1.22056 -0.91827 -0.46629
-1.21895 -0.91556 -0.46558
-1.21737 -0.91287 -0.46470
-1.21962 -0.91307 -0.46529
-1.22259 -0.91379 -0.46634
-1.22254 -0.91226 -0.46605
-1.22253 -0.91076 -0.46559
-1.22328 -0.90983 -0.46543
-1.22319 -0.90827 -0.46531
-1.22240 -0.90620 -0.46456
-1.22388 -0.90580 -0.46486
-1.25573 -0.86947 -0.46644
-1.26362 -0.85444 -0.46606
-1.26928 -0.84954 -0.46650
-1.26756 -0.84694 -0.46563
-1.26743 -0.84541 -0.46534
-1.27208 -0.84706 -0.46680
-1.27654 -0.82268 -0.46410
-1.27879 -0.82271 -0.46469
-1.28105 -0.82273 -0.46528
-1.34852 -0.71463 -0.46693
-1.35480 -0.69226 -0.46536
-1.35445 -0.69074 -0.46524
-1.35503 -0.68970 -0.46508
-1.35813 -0.68993 -0.46596
-1.35863 -0.68884 -0.46613
-1.35490 -0.68562 -0.46467
-1.35288 -0.68326 -0.46379
-1.35598 -0.68349 -0.46467
-1.35826 -0.68330 -0.46509
-1.35876 -0.68221 -0.46526
-1.35672 -0.67986 -0.46439
-1.35550 -0.67792 -0.46397
-1.35603 -0.67685 -0.46398
-1.35828 -0.67664 -0.46456
-1.36137 -0.67685 -0.46544
-1.36362 -0.67663 -0.46603
-1.36329 -0.67513 -0.46574
-1.36296 -0.67363 -0.46545
-1.36178 -0.67172 -0.46487
-1.36230 -0.67065 -0.46487
-1.36369 -0.67000 -0.46517
-1.36421 -0.66893 -0.46517
-1.36474 -0.66785 -0.46518
-1.36698 -0.66762 -0.46576
-1.36836 -0.66697 -0.46606
-1.36721 -0.66508 -0.46531
-1.36687 -0.66358 -0.46502
-1.36739 -0.66251 -0.46503
-1.36705 -0.66102 -0.46474
-1.36675 -0.65955 -0.46428
-1.36727 -0.65848 -0.46429
-1.36951 -0.65823 -0.46487
-1.36744 -0.65591 -0.46400
-1.36536 -0.65360 -0.46312
-1.36846 -0.65376 -0.46400
-1.37156 -0.65392 -0.46488
-1.37035 -0.65202 -0.46430
-1.36913 -0.65013 -0.46372
-1.36964 -0.64905 -0.46372
-1.37015 -0.64797 -0.46373
-1.37148 -0.64728 -0.46419
-1.37280 -0.64659 -0.46465
-1.37245 -0.64511 -0.46436
-1.37300 -0.64405 -0.46420
-1.37437 -0.64337 -0.46449
-1.37660 -0.64310 -0.46508
-1.37793 -0.64240 -0.46554
-1.38103 -0.64253 -0.46642
-1.38067 -0.64104 -0.46613
-1.37770 -0.63835 -0.46497
-1.37820 -0.63727 -0.46497
-1.38130 -0.63739 -0.46585
-1.38359 -0.63712 -0.46627
-1.38235 -0.63524 -0.46569
-1.38106 -0.63333 -0.46527
-1.37813 -0.63068 -0.46394
-1.37862 -0.62959 -0.46394
-1.38607 -0.63168 -0.46629
-1.38313 -0.62903 -0.46496
-1.38101 -0.62676 -0.46408
-1.38238 -0.62607 -0.46437
-1.38369 -0.62535 -0.46484
-1.38505 -0.62466 -0.46513
-1.38642 -0.62396 -0.46543
-1.38603 -0.62248 -0.46514
-1.38565 -0.62100 -0.46485
-1.38701 -0.62030 -0.46514
-1.38832 -0.61957 -0.46561
-1.38881 -0.61848 -0.46561
-1.39017 -0.61778 -0.46591
-1.39065 -0.61668 -0.46591
-1.38939 -0.61481 -0.46532
-1.38632 -0.61216 -0.46432
-1.38598 -0.61070 -0.46387
-1.38903 -0.61074 -0.46491
-1.39214 -0.61080 -0.46580
-1.39350 -0.61009 -0.46609
-1.39397 -0.60899 -0.46609
-1.39270 -0.60713 -0.46551
-1.39142 -0.60527 -0.46493
-1.39277 -0.60456 -0.46522
-1.39505 -0.60424 -0.46565
-1.39289 -0.60201 -0.46477
-1.39424 -0.60129 -0.46507
-1.39559 -0.60057 -0.46536
-1.39606 -0.59947 -0.46537
-1.39658 -0.59840 -0.46520
-1.39793 -0.59767 -0.46550
-1.39839 -0.59657 -0.46550
-1.39710 -0.59472 -0.46492
-1.39850 -0.59402 -0.46505
-1.39980 -0.59327 -0.46551
-1.39767 -0.59107 -0.46447
-1.39632 -0.58921 -0.46405
-1.39678 -0.58811 -0.46406
-1.39989 -0.58812 -0.46494
-1.40211 -0.58776 -0.46553
-1.40169 -0.58629 -0.46524
-1.40215 -0.58518 -0.46524
-1.40433 -0.58480 -0.46600
-1.40655 -0.58442 -0.46659
-1.40525 -0.58259 -0.46600
-1.40124 -0.57963 -0.46471
-1.40169 -0.57853 -0.46471
-1.40564 -0.57886 -0.46605
-1.40702 -0.57814 -0.46618
-1.40305 -0.57522 -0.46472
-1.40704 -0.57556 -0.46589
-1.41015 -0.57554 -0.46677
-1.40888 -0.57373 -0.46603
-1.40844 -0.57226 -0.46574
-1.40889 -0.57115 -0.46574
-1.40845 -0.56968 -0.46545
-1.40890 -0.56858 -0.46545
-1.40934 -0.56747 -0.46546
-1.41068 -0.56672 -0.46575
-1.41206 -0.56598 -0.46588
-1.41250 -0.56487 -0.46588
-1.41205 -0.56340 -0.46559
-1.41161 -0.56194 -0.46531
-1.41022 -0.56010 -0.46489
-1.40982 -0.55866 -0.46443
-1.41026 -0.55755 -0.46444
-1.41243 -0.55712 -0.46519
-1.41376 -0.55636 -0.46549
-1.41508 -0.55560 -0.46578
-1.41641 -0.55484 -0.46608
-1.41590 -0.55336 -0.46595
-1.41545 -0.55189 -0.46566
-1.41588 -0.55078 -0.46567
-1.41988 -0.55105 -0.46684
-1.42209 -0.55062 -0.46743
-1.42074 -0.54881 -0.46685
-1.42023 -0.54733 -0.46672
-1.42249 -0.54692 -0.46715
-1.42292 -0.54580 -0.46715
-1.42067 -0.54366 -0.46627
-1.42020 -0.54220 -0.46598
-1.42331 -0.54210 -0.46687
-1.42373 -0.54098 -0.46687
-1.41969 -0.53817 -0.46541
-1.42016 -0.53707 -0.46524
-1.42505 -0.53764 -0.46671
-1.42637 -0.53685 -0.46701
-1.42321 -0.53439 -0.46584
-1.42273 -0.53293 -0.46555
-1.42589 -0.53283 -0.46627
-1.42809 -0.53238 -0.46685
-1.42762 -0.53092 -0.46656
-1.42714 -0.52946 -0.46627
-1.43024 -0.52933 -0.46716
-1.43156 -0.52854 -0.46745
-1.42659 -0.52542 -0.46570
-1.42610 -0.52397 -0.46541
-1.43011 -0.52416 -0.46658
-1.42872 -0.52237 -0.46600
-1.43088 -0.52188 -0.46675
-1.43129 -0.52075 -0.46676
-1.43080 -0.51930 -0.46647
-1.43211 -0.51850 -0.46676
-1.43517 -0.51832 -0.46781
-1.43558 -0.51719 -0.46781
-1.43328 -0.51509 -0.46694
-1.43369 -0.51395 -0.46694
-1.43499 -0.51314 -0.46724
-1.43540 -0.51201 -0.46724
-1.43310 -0.50992 -0.46636
-1.43170 -0.50815 -0.46578
-1.43390 -0.50765 -0.46637
-1.43610 -0.50716 -0.46696
-1.43740 -0.50635 -0.46726
-1.43790 -0.50524 -0.46693
-1.43644 -0.50346 -0.46651
-1.43413 -0.50138 -0.46563
-1.43543 -0.50056 -0.46593
-1.43858 -0.50039 -0.46665
-1.43892 -0.49924 -0.46682
-1.44394 -0.47812 -0.46662
-1.44431 -0.47698 -0.46662
-1.44741 -0.47673 -0.46750
-1.47512 -0.37842 -0.46741
-1.47356 -0.37678 -0.46682
-1.47386 -0.37562 -0.46682
-1.46997 -0.35984 -0.46432
-1.47304 -0.35936 -0.46520
-1.17576 -0.97300 -0.46698
-1.17873 -0.97391 -0.46786
-1.18412 -0.94747 -0.46428
-1.18864 -0.94955 -0.46558
-1.19387 -0.95220 -0.46734
-1.20490 -0.93193 -0.46623
-1.20336 -0.92923 -0.46535
-1.21133 -0.92029 -0.46584
-1.21129 -0.91876 -0.46555
-1.21201 -0.91781 -0.46555
-1.21579 -0.91917 -0.46673
-1.21727 -0.91879 -0.46703
-1.21498 -0.91556 -0.46569
-1.21416 -0.91345 -0.46511
-1.21565 -0.91307 -0.46540
-1.21636 -0.91212 -0.46541
-1.21555 -0.91002 -0.46482
-1.21630 -0.90909 -0.46466
-1.21931 -0.90985 -0.46554
-1.22002 -0.90889 -0.46555
-1.21844 -0.90622 -0.46467
-1.21765 -0.90416 -0.46392
-1.21986 -0.90431 -0.46468
-1.22060 -0.90338 -0.46452
-1.25288 -0.85440 -0.46441
-1.25435 -0.85395 -0.46470
-1.25739 -0.85457 -0.46559
-1.25732 -0.85307 -0.46513
-1.25557 -0.85044 -0.46442
-1.25624 -0.84945 -0.46442
-1.25933 -0.85009 -0.46514
-1.25841 -0.84803 -0.46456
-1.25591 -0.84490 -0.46339
-1.26050 -0.84655 -0.46502
-1.26275 -0.84662 -0.46561
-1.26342 -0.84562 -0.46561
-1.26409 -0.84462 -0.46562
-1.26555 -0.84415 -0.46591
-1.26621 -0.84315 -0.46592
-1.26763 -0.84266 -0.46638
-1.26590 -0.84007 -0.46550
-1.26333 -0.83693 -0.46450
-1.26244 -0.83491 -0.46375
-1.26629 -0.83602 -0.46492
-1.26695 -0.83502 -0.46493
-1.26441 -0.83191 -0.46376
-1.26502 -0.83089 -0.46393
-1.26732 -0.83097 -0.46435
-1.26877 -0.83049 -0.46465
-1.27023 -0.83001 -0.46494
-1.27248 -0.83005 -0.46553
-1.27073 -0.82748 -0.46466
-1.26978 -0.82544 -0.46407
-1.27204 -0.82548 -0.46466
-1.27433 -0.82554 -0.46509
-1.27338 -0.82349 -0.46450
-1.27398 -0.82246 -0.46467
-1.27624 -0.82249 -0.46526
-1.27689 -0.82148 -0.46526
-1.27753 -0.82048 -0.46527
-1.27818 -0.81947 -0.46527
-1.27882 -0.81846 -0.46527
-1.27947 -0.81745 -0.46527
-1.28172 -0.81747 -0.46586
-1.28156 -0.81594 -0.46557
-1.27893 -0.81285 -0.46457
-1.27957 -0.81184 -0.46457
-1.28183 -0.81185 -0.46516
-1.28166 -0.81033 -0.46487
-1.28149 -0.80881 -0.46458
-1.28374 -0.80882 -0.46517
-1.28519 -0.80831 -0.46547
-1.28421 -0.80628 -0.46488
-1.28403 -0.80476 -0.46459
-1.28629 -0.80476 -0.46518
-1.28692 -0.80375 -0.46519
-1.28593 -0.80172 -0.46460
-1.28819 -0.80171 -0.46519
-1.29125 -0.80221 -0.46608
-1.29026 -0.80018 -0.46549
-1.28768 -0.79718 -0.46416
-1.28993 -0.79717 -0.46475
-1.28975 -0.79565 -0.46446
-1.28956 -0.79413 -0.46417
-1.29426 -0.79561 -0.46564
-1.29652 -0.79559 -0.46622
-1.29311 -0.79210 -0.46460
-1.29047 -0.78908 -0.46343
-1.29191 -0.78856 -0.46372
-1.29498 -0.78903 -0.46461
-1.29560 -0.78801 -0.46461
-1.29540 -0.78649 -0.46432
-1.29520 -0.78497 -0.46403
-1.29496 -0.78343 -0.46390
-1.29721 -0.78340 -0.46449
-1.29783 -0.78237 -0.46450
-1.29845 -0.78135 -0.46450
-1.29742 -0.77934 -0.46392
-1.29717 -0.77780 -0.46379
-1.29860 -0.77726 -0.46409
-1.30086 -0.77722 -0.46468
-1.30311 -0.77717 -0.46527
-1.30372 -0.77614 -0.46527
-1.30351 -0.77463 -0.46498
-1.30330 -0.77311 -0.46469
-1.30473 -0.77257 -0.46498
-1.30534 -0.77154 -0.46499
-1.30599 -0.77053 -0.46482
-1.30491 -0.76851 -0.46441
-1.30469 -0.76699 -0.46412
-1.30364 -0.76499 -0.46353
-1.30264 -0.76302 -0.46279
-1.30406 -0.76248 -0.46308
-1.30797 -0.76338 -0.46426
-1.31105 -0.76379 -0.46514
-1.31082 -0.76227 -0.46485
-1.31059 -0.76076 -0.46456
-1.31285 -0.76068 -0.46515
-1.31427 -0.76013 -0.46544
-1.31404 -0.75861 -0.46515
-1.31543 -0.75802 -0.46562
-1.31768 -0.75794 -0.46621
-1.31583 -0.75550 -0.46516
-1.31224 -0.75206 -0.46387
-1.31283 -0.75102 -0.46387
-1.31591 -0.75141 -0.46475
-1.31484 -0.74942 -0.46417
-1.31294 -0.74696 -0.46329
-1.31348 -0.74590 -0.46346
-1.31656 -0.74628 -0.46434
-1.31965 -0.74665 -0.46522
-1.31774 -0.74420 -0.46435
-1.31749 -0.74269 -0.46406
-1.31974 -0.74259 -0.46465
-1.32116 -0.74202 -0.46494
-1.32012 -0.74006 -0.46420
-1.32070 -0.73902 -0.46420
-1.32128 -0.73798 -0.46420
-1.32187 -0.73694 -0.46420
-1.32245 -0.73589 -0.46421
-1.32720 -0.73717 -0.46568
-1.32950 -0.73707 -0.46610
-1.32841 -0.73510 -0.46552
-1.32480 -0.73174 -0.46405
-1.32538 -0.73069 -0.46406
-1.33098 -0.73241 -0.46582
-1.33156 -0.73136 -0.46582
-1.32710 -0.72755 -0.46407
-1.32688 -0.72607 -0.46361
-1.33076 -0.72683 -0.46495
-1.33133 -0.72578 -0.46496
-1.32939 -0.72336 -0.46408
-1.33075 -0.72274 -0.46454
-1.33552 -0.72397 -0.46601
-1.33693 -0.72337 -0.46631
-1.33246 -0.71959 -0.46455
-1.32966 -0.71672 -0.46338
-1.33190 -0.71658 -0.46397
-1.33579 -0.71732 -0.46531
-1.33640 -0.71629 -0.46515
-1.33443 -0.71389 -0.46427
-1.33747 -0.71417 -0.46532
-1.33550 -0.71177 -0.46444
-1.33437 -0.70982 -0.46386
-1.33662 -0.70967 -0.46445
-1.33971 -0.70996 -0.46533
-1.34111 -0.70935 -0.46563
-1.34256 -0.70877 -0.46576
-1.34311 -0.70771 -0.46576
-1.34028 -0.70488 -0.46459
-1.33914 -0.70294 -0.46401
-1.34308 -0.70366 -0.46518
-1.34706 -0.70440 -0.46620
-1.34672 -0.70288 -0.46607
-1.34388 -0.70005 -0.46490
-1.34358 -0.69855 -0.46461
-1.34498 -0.69794 -0.46491
-1.34463 -0.69642 -0.46478
-1.34437 -0.69494 -0.46432
-1.34577 -0.69433 -0.46462
-1.34801 -0.69414 -0.46521
-1.35021 -0.69393 -0.46597
-1.35076 -0.69287 -0.46597
-1.34955 -0.69092 -0.46555
-1.34758 -0.68858 -0.46451
-1.34727 -0.68708 -0.46422
-1.35037 -0.68732 -0.46510
-1.35176 -0.68670 -0.46540
-1.35140 -0.68518 -0.46527
-1.35023 -0.68325 -0.46469
-1.35247 -0.68305 -0.46528
-1.35471 -0.68285 -0.46587
-1.35529 -0.68181 -0.46571
-1.35583 -0.68074 -0.46571
-1.35636 -0.67968 -0.46571
-1.35604 -0.67818 -0.46542
-1.35405 -0.67586 -0.46438
-1.35201 -0.67352 -0.46350
-1.35250 -0.67243 -0.46367
-1.35478 -0.67224 -0.46410
-1.35616 -0.67160 -0.46439
-1.35669 -0.67053 -0.46440
-1.35726 -0.66949 -0.46423
-1.35950 -0.66927 -0.46482
-1.36003 -0.66820 -0.46483
-1.35883 -0.66629 -0.46424
-1.35935 -0.66522 -0.46425
-1.36327 -0.66581 -0.46559
-1.36379 -0.66474 -0.46559
-1.36259 -0.66283 -0.46501
-1.36397 -0.66218 -0.46530
-1.36621 -0.66194 -0.46589
-1.36238 -0.65876 -0.46459
-1.36294 -0.65771 -0.46443
-1.36427 -0.65703 -0.46489
-1.36479 -0.65596 -0.46490
-1.36702 -0.65572 -0.46549
-1.36749 -0.65462 -0.46565
-1.36546 -0.65233 -0.46461
-1.36684 -0.65167 -0.46491
-1.36907 -0.65142 -0.46550
-1.36872 -0.64993 -0.46521
-1.36750 -0.64804 -0.46462
-1.36887 -0.64737 -0.46492
-1.37025 -0.64670 -0.46522
-1.36902 -0.64481 -0.46463
-1.36953 -0.64373 -0.46464
-1.37176 -0.64347 -0.46522
-1.37400 -0.64320 -0.46581
-1.37455 -0.64214 -0.46565
-1.37592 -0.64147 -0.46595
-1.37638 -0.64036 -0.46612
-1.37601 -0.63888 -0.46583
-1.37478 -0.63700 -0.46524
-1.37354 -0.63511 -0.46466
-1.37404 -0.63403 -0.46466
-1.37453 -0.63295 -0.46467
-1.37503 -0.63187 -0.46467
-1.37987 -0.63279 -0.46614
-1.38037 -0.63170 -0.46614
-1.37912 -0.62982 -0.46556
-1.37696 -0.62753 -0.46485
-1.37745 -0.62645 -0.46485
-1.38142 -0.62694 -0.46603
-1.38366 -0.62665 -0.46662
-1.38153 -0.62438 -0.46574
-1.37941 -0.62211 -0.46486
-1.37990 -0.62103 -0.46486
-1.38213 -0.62072 -0.46545
-1.38436 -0.62042 -0.46604
-1.38397 -0.61894 -0.46575
-1.38359 -0.61746 -0.46546
-1.38494 -0.61676 -0.46576
-1.38718 -0.61645 -0.46635
-1.38853 -0.61574 -0.46665
-1.38644 -0.61351 -0.46560
-1.38780 -0.61281 -0.46590
-1.39003 -0.61248 -0.46649
-1.39051 -0.61139 -0.46649
-1.39011 -0.60991 -0.46620
-1.38888 -0.60807 -0.46545
-1.38673 -0.60583 -0.46458
-1.38546 -0.60398 -0.46399
-1.39031 -0.60479 -0.46546
-1.39429 -0.60522 -0.46664
-1.38858 -0.60144 -0.46475
-1.38905 -0.60035 -0.46476
-1.39308 -0.60079 -0.46577
-1.39443 -0.60007 -0.46607
-1.39227 -0.59784 -0.46519
-1.39093 -0.59598 -0.46477
-1.39316 -0.59563 -0.46536
-1.39446 -0.59489 -0.46582
-1.39404 -0.59342 -0.46553
-1.39275 -0.59158 -0.46494
-1.39321 -0.59048 -0.46495
-1.39354 -0.58932 -0.46545
-1.39678 -0.58940 -0.46584
-1.39812 -0.58867 -0.46613
-1.39947 -0.58794 -0.46643
-1.39993 -0.58684 -0.46643
-1.40039 -0.58574 -0.46643
-1.40178 -0.58503 -0.46657
-1.40042 -0.58317 -0.46615
-1.39735 -0.58060 -0.46498
-1.39520 -0.57842 -0.46393
-1.39831 -0.57842 -0.46482
-1.40230 -0.57878 -0.46599
-1.40275 -0.57768 -0.46600
-1.40143 -0.57585 -0.46541
-1.40012 -0.57402 -0.46483
-1.40057 -0.57291 -0.46483
-1.40987 -0.57542 -0.46777
-1.40855 -0.57359 -0.46719
-1.40457 -0.57069 -0.46572
-1.40413 -0.56922 -0.46543
-1.40635 -0.56883 -0.46602
-1.40675 -0.56771 -0.46619
-1.40453 -0.56553 -0.46531
-1.40498 -0.56443 -0.46531
-1.40986 -0.56510 -0.46679
-1.41380 -0.56539 -0.46813
-1.41158 -0.56322 -0.46725
-1.40847 -0.56069 -0.46608
-1.40713 -0.55888 -0.46549
-1.40580 -0.55707 -0.46491
-1.40445 -0.55526 -0.46432
-1.40751 -0.55519 -0.46537
-1.40977 -0.55480 -0.46580
-1.40843 -0.55299 -0.46522
-1.40975 -0.55223 -0.46551
-1.41642 -0.55355 -0.46757
-1.41868 -0.55315 -0.46800
-1.41644 -0.55100 -0.46712
-1.41598 -0.54954 -0.46683
-1.41819 -0.54911 -0.46742
-1.41773 -0.54765 -0.46713
-1.41821 -0.54656 -0.46697
-1.41864 -0.54544 -0.46697
-1.41728 -0.54364 -0.46638
-1.41592 -0.54184 -0.46580
-1.41813 -0.54141 -0.46639
-1.41945 -0.54063 -0.46669
-1.41809 -0.53884 -0.46610
-1.41762 -0.53738 -0.46581
-1.41714 -0.53593 -0.46552
-1.41846 -0.53515 -0.46582
-1.42156 -0.53504 -0.46670
-1.42288 -0.53426 -0.46700
-1.42146 -0.53245 -0.46658
-1.42187 -0.53134 -0.46658
-1.42224 -0.53020 -0.46675
-1.42266 -0.52908 -0.46675
-1.42307 -0.52796 -0.46676
-1.42439 -0.52717 -0.46705
-1.42659 -0.52670 -0.46765
-1.42701 -0.52558 -0.46765
-1.42652 -0.52412 -0.46736
-1.42604 -0.52267 -0.46707
-1.42735 -0.52187 -0.46736
-1.43330 -0.50236 -0.46712
-1.43189 -0.50060 -0.46654
-1.43319 -0.49978 -0.46683
-1.43539 -0.49928 -0.46742
-1.44226 -0.47630 -0.46686
-1.45945 -0.39905 -0.46545
-1.46951 -0.37575 -0.46681
-1.46883 -0.35834 -0.46568
-1.18538 -0.94847 -0.46586
-1.20156 -0.92934 -0.46638
-1.20077 -0.92723 -0.46580
-1.20377 -0.92804 -0.46668
-1.20648 -0.91511 -0.46479
-1.20796 -0.91474 -0.46508
-1.21020 -0.91495 -0.46567
-1.21168 -0.91457 -0.46597
-1.21087 -0.91247 -0.46538
-1.20930 -0.90979 -0.46451
-1.20848 -0.90769 -0.46392
-1.21068 -0.90786 -0.46468
-1.21139 -0.90691 -0.46468
-1.21211 -0.90596 -0.46468
-1.21358 -0.90558 -0.46498
-1.21425 -0.90459 -0.46515
-1.21419 -0.90307 -0.46486
-1.21648 -0.90328 -0.46528
-1.21795 -0.90290 -0.46558
-1.21631 -0.90020 -0.46487
-1.24781 -0.85094 -0.46397
-1.25006 -0.85103 -0.46456
-1.25385 -0.85217 -0.46590
-1.25136 -0.84903 -0.46473
-1.25044 -0.84697 -0.46415
-1.25270 -0.84705 -0.46474
-1.25649 -0.84818 -0.46608
-1.25720 -0.84721 -0.46592
-1.25549 -0.84462 -0.46504
-1.25377 -0.84203 -0.46416
-1.25682 -0.84264 -0.46504
-1.26304 -0.84537 -0.46710
-1.26371 -0.84437 -0.46711
-1.26123 -0.84128 -0.46577
-1.25951 -0.83869 -0.46489
-1.26017 -0.83770 -0.46490
-1.26079 -0.83667 -0.46506
-1.26149 -0.83571 -0.46490
-1.26210 -0.83468 -0.46507
-1.26440 -0.83477 -0.46549
-1.26346 -0.83272 -0.46491
-1.26092 -0.82962 -0.46374
-1.26157 -0.82862 -0.46374
-1.26542 -0.82972 -0.46492
-1.26608 -0.82872 -0.46492
-1.26353 -0.82563 -0.46375
-1.26338 -0.82411 -0.46346
-1.26723 -0.82520 -0.46464
-1.26864 -0.82469 -0.46510
-1.26929 -0.82369 -0.46510
-1.26994 -0.82269 -0.46510
-1.26974 -0.82114 -0.46498
-1.27039 -0.82014 -0.46498
-1.27184 -0.81966 -0.46528
-1.27168 -0.81813 -0.46499
-1.27071 -0.81610 -0.46440
-1.27136 -0.81509 -0.46441
-1.27361 -0.81512 -0.46500
-1.27506 -0.81463 -0.46529
-1.27570 -0.81362 -0.46530
-1.27634 -0.81262 -0.46530
-1.27617 -0.81110 -0.46501
-1.27520 -0.80906 -0.46442
-1.27588 -0.80808 -0.46426
-1.27974 -0.80912 -0.46544
-1.28523 -0.81117 -0.46721
-1.28425 -0.80914 -0.46662
-1.27923 -0.80456 -0.46457
-1.27585 -0.80104 -0.46294
-1.27972 -0.80206 -0.46412
-1.28360 -0.80308 -0.46530
-1.28342 -0.80156 -0.46500
-1.27995 -0.79799 -0.46370
-1.28229 -0.79804 -0.46396
-1.28531 -0.79852 -0.46501
-1.28594 -0.79750 -0.46502
-1.28571 -0.79596 -0.46489
-1.28471 -0.79394 -0.46431
-1.28538 -0.79295 -0.46414
-1.28515 -0.79141 -0.46402
-1.28414 -0.78939 -0.46343
-1.28553 -0.78885 -0.46389
-1.28779 -0.78884 -0.46448
-1.29085 -0.78932 -0.46537
-1.29147 -0.78830 -0.46537
-1.28965 -0.78578 -0.46449
-1.29194 -0.78579 -0.46492
-1.29252 -0.78474 -0.46509
-1.28905 -0.78124 -0.46362
-1.28884 -0.77973 -0.46333
-1.29519 -0.78217 -0.46539
-1.30076 -0.78414 -0.46699
-1.29642 -0.78013 -0.46540
-1.29134 -0.77568 -0.46318
-1.29195 -0.77467 -0.46318
-1.29830 -0.77708 -0.46524
-1.29891 -0.77606 -0.46524
-1.29788 -0.77405 -0.46466
-1.30095 -0.77450 -0.46554
-1.30079 -0.77301 -0.46509
-1.29888 -0.77049 -0.46437
-1.30031 -0.76995 -0.46467
-1.30257 -0.76990 -0.46526
-1.30153 -0.76790 -0.46468
-1.30131 -0.76639 -0.46439
-1.30191 -0.76536 -0.46439
-1.30247 -0.76431 -0.46456
-1.30472 -0.76424 -0.46515
-1.30780 -0.76466 -0.46603
-1.30922 -0.76411 -0.46633
-1.30900 -0.76260 -0.46604
-1.30712 -0.76012 -0.46516
-1.30607 -0.75813 -0.46458
-1.30914 -0.75854 -0.46546
-1.31052 -0.75796 -0.46592
-1.31029 -0.75644 -0.46563
-1.31254 -0.75636 -0.46622
-1.31563 -0.75676 -0.46711
-1.31539 -0.75524 -0.46682
-1.31101 -0.75135 -0.46505
-1.30911 -0.74889 -0.46418
-1.31141 -0.74884 -0.46460
-1.31449 -0.74922 -0.46549
-1.31342 -0.74724 -0.46490
-1.31234 -0.74526 -0.46432
-1.31376 -0.74469 -0.46462
-1.31689 -0.74509 -0.46533
-1.31747 -0.74405 -0.46534
-1.31556 -0.74160 -0.46446
-1.31619 -0.74059 -0.46430
-1.31927 -0.74096 -0.46518
-1.31981 -0.73989 -0.46535
-1.31956 -0.73838 -0.46506
-1.32098 -0.73781 -0.46536
-1.32156 -0.73676 -0.46536
-1.31963 -0.73433 -0.46448
-1.31770 -0.73189 -0.46360
-1.31995 -0.73178 -0.46419
-1.32387 -0.73259 -0.46537
-1.32440 -0.73152 -0.46554
-1.32330 -0.72955 -0.46495
-1.32467 -0.72894 -0.46542
-1.32441 -0.72744 -0.46513
-1.32247 -0.72501 -0.46425
-1.32052 -0.72259 -0.46337
-1.32193 -0.72201 -0.46366
-1.32585 -0.72279 -0.46484
-1.32815 -0.72269 -0.46527
-1.32956 -0.72209 -0.46557
-1.33012 -0.72104 -0.46557
-1.33069 -0.71999 -0.46557
-1.32874 -0.71758 -0.46469
-1.32846 -0.71608 -0.46440
-1.32902 -0.71503 -0.46441
-1.32958 -0.71399 -0.46441
-1.33098 -0.71339 -0.46470
-1.33323 -0.71325 -0.46530
-1.33210 -0.71130 -0.46471
-1.33182 -0.70980 -0.46442
-1.33237 -0.70876 -0.46442
-1.33377 -0.70816 -0.46472
-1.33433 -0.70711 -0.46472
-1.33573 -0.70651 -0.46502
-1.33713 -0.70590 -0.46532
-1.33852 -0.70530 -0.46562
-1.33908 -0.70425 -0.46562
-1.33958 -0.70317 -0.46579
-1.34013 -0.70212 -0.46579
-1.33814 -0.69973 -0.46491
-1.33869 -0.69868 -0.46491
-1.34178 -0.69896 -0.46580
-1.34403 -0.69878 -0.46639
-1.34283 -0.69682 -0.46597
-1.34338 -0.69577 -0.46597
-1.34397 -0.69473 -0.46581
-1.34447 -0.69366 -0.46598
-1.34251 -0.69131 -0.46493
-1.34135 -0.68938 -0.46435
-1.34359 -0.68920 -0.46494
-1.34409 -0.68812 -0.46511
-1.34722 -0.68839 -0.46583
-1.34611 -0.68649 -0.46508
-1.34579 -0.68500 -0.46479
-1.34633 -0.68394 -0.46479
-1.34772 -0.68331 -0.46509
-1.34911 -0.68268 -0.46538
-1.34798 -0.68078 -0.46463
-1.34595 -0.67843 -0.46375
-1.34819 -0.67824 -0.46435
-1.35214 -0.67889 -0.46553
-1.35438 -0.67868 -0.46612
-1.35320 -0.67676 -0.46553
-1.35288 -0.67527 -0.46524
-1.35080 -0.67291 -0.46453
-1.34961 -0.67100 -0.46394
-1.35271 -0.67121 -0.46483
-1.35580 -0.67142 -0.46571
-1.35542 -0.66991 -0.46559
-1.35424 -0.66800 -0.46500
-1.35476 -0.66693 -0.46500
-1.35700 -0.66671 -0.46559
-1.36009 -0.66691 -0.46648
-1.36062 -0.66584 -0.46648
-1.35770 -0.66309 -0.46531
-1.35736 -0.66161 -0.46502
-1.36132 -0.66221 -0.46620
-1.36012 -0.66031 -0.46561
-1.35892 -0.65841 -0.46503
-1.35943 -0.65734 -0.46503
-1.36167 -0.65710 -0.46562
-1.36309 -0.65646 -0.46575
-1.36274 -0.65498 -0.46546
-1.36153 -0.65308 -0.46488
-1.36118 -0.65160 -0.46459
-1.36169 -0.65053 -0.46459
-1.35962 -0.64823 -0.46371
-1.35926 -0.64675 -0.46342
-1.36236 -0.64691 -0.46430
-1.36718 -0.64788 -0.46578
-1.36855 -0.64722 -0.46608
-1.36642 -0.64490 -0.46536
-1.36606 -0.64342 -0.46507
-1.36739 -0.64273 -0.46553
-1.36707 -0.64127 -0.46508
-1.36584 -0.63938 -0.46449
-1.36976 -0.63991 -0.46583
-1.37286 -0.64004 -0.46672
-1.37076 -0.63775 -0.46584
-1.36866 -0.63547 -0.46496
-1.37085 -0.63518 -0.46572
-1.37308 -0.63490 -0.46631
-1.37623 -0.63504 -0.46703
-1.37759 -0.63436 -0.46733
-1.37548 -0.63208 -0.46645
-1.37164 -0.62901 -0.46498
-1.37126 -0.62753 -0.46469
-1.37436 -0.62765 -0.46557
-1.37577 -0.62698 -0.46571
-1.37452 -0.62511 -0.46512
-1.37501 -0.62403 -0.46512
-1.37637 -0.62334 -0.46542
-1.37773 -0.62266 -0.46572
-1.37734 -0.62118 -0.46543
-1.37701 -0.61972 -0.46497
-1.37745 -0.61862 -0.46514
-1.38059 -0.61873 -0.46586
-1.38108 -0.61764 -0.46586
-1.38069 -0.61617 -0.46557
-1.38117 -0.61508 -0.46557
-1.38253 -0.61438 -0.46587
-1.38301 -0.61329 -0.46587
-1.38349 -0.61220 -0.46588
-1.38397 -0.61112 -0.46588
-1.38528 -0.61039 -0.46634
-1.38488 -0.60892 -0.46605
-1.38361 -0.60706 -0.46547
-1.38579 -0.60672 -0.46622
-1.38807 -0.60641 -0.46665
-1.38674 -0.60454 -0.46623
-1.38722 -0.60345 -0.46623
-1.39032 -0.60350 -0.46712
-1.39079 -0.60240 -0.46712
-1.38863 -0.60017 -0.46624
-1.38647 -0.59794 -0.46536
-1.38782 -0.59723 -0.46566
-1.38917 -0.59651 -0.46596
-1.38788 -0.59467 -0.46537
-1.38834 -0.59357 -0.46537
-1.39325 -0.59438 -0.46668
-1.39635 -0.59440 -0.46757
-1.39506 -0.59256 -0.46698
-1.39289 -0.59034 -0.46610
-1.39071 -0.58813 -0.46522
-1.39117 -0.58703 -0.46523
-1.39075 -0.58557 -0.46493
-1.39385 -0.58559 -0.46582
-1.39784 -0.58597 -0.46700
-1.39830 -0.58487 -0.46700
-1.39611 -0.58266 -0.46612
-1.39568 -0.58120 -0.46583
-1.39702 -0.58046 -0.46613
-1.39660 -0.57900 -0.46584
-1.39877 -0.57861 -0.46660
-1.40099 -0.57824 -0.46719
-1.40144 -0.57714 -0.46719
-1.40273 -0.57638 -0.46765
-1.40500 -0.57602 -0.46808
-1.40364 -0.57417 -0.46766
-1.40055 -0.57162 -0.46648
-1.40276 -0.57124 -0.46708
-1.40587 -0.57122 -0.46796
-1.40543 -0.56975 -0.46767
-1.40411 -0.56793 -0.46709
-1.40367 -0.56646 -0.46679
-1.40588 -0.56607 -0.46739
-1.40810 -0.56568 -0.46798
-1.40766 -0.56422 -0.46769
-1.40637 -0.56242 -0.46694
-1.40504 -0.56060 -0.46635
-1.40548 -0.55950 -0.46635
-1.40596 -0.55841 -0.46619
-1.40995 -0.55871 -0.46737
-1.41298 -0.54837 -0.46710
-1.41158 -0.54655 -0.46668
-1.42398 -0.52446 -0.46792
-1.44822 -0.42312 -0.46570
-1.44947 -0.42224 -0.46600
-1.46204 -0.35668 -0.46460
-1.14286 -0.98424 -0.46394
-1.20052 -0.92854 -0.46725
-1.20684 -0.91389 -0.46627
-1.20679 -0.91236 -0.46598
-1.20674 -0.91084 -0.46569
-1.20673 -0.90935 -0.46523
-1.20592 -0.90725 -0.46465
-1.20587 -0.90573 -0.46436
-1.21040 -0.90765 -0.46583
-1.21035 -0.90612 -0.46554
-1.20795 -0.90285 -0.46453
-1.21023 -0.90308 -0.46496
-1.21247 -0.90327 -0.46555
-1.21161 -0.90114 -0.46513
-1.21155 -0.89962 -0.46484
-1.21148 -0.89810 -0.46455
-1.21065 -0.89601 -0.46396
-1.21135 -0.89506 -0.46396
-1.22183 -0.88068 -0.46401
-1.22408 -0.88083 -0.46460
-1.24523 -0.85062 -0.46469
-1.24590 -0.84964 -0.46470
-1.24815 -0.84973 -0.46529
-1.24881 -0.84874 -0.46529
-1.24869 -0.84722 -0.46500
-1.24857 -0.84570 -0.46471
-1.24840 -0.84415 -0.46458
-1.25065 -0.84423 -0.46517
-1.25215 -0.84381 -0.46531
-1.25277 -0.84279 -0.46547
-1.25106 -0.84020 -0.46459
-1.25092 -0.83868 -0.46430
-1.25238 -0.83823 -0.46460
-1.25538 -0.83880 -0.46565
-1.25767 -0.83890 -0.46608
-1.25829 -0.83788 -0.46625
-1.25577 -0.83477 -0.46507
-1.25722 -0.83431 -0.46537
-1.26027 -0.83490 -0.46625
-1.26013 -0.83338 -0.46596
-1.25915 -0.83130 -0.46554
-1.26068 -0.83089 -0.46551
-1.26289 -0.83092 -0.46627
-1.26199 -0.82890 -0.46552
-1.26264 -0.82790 -0.46552
-1.26330 -0.82690 -0.46552
-1.26395 -0.82591 -0.46553
-1.26620 -0.82595 -0.46612
-1.26925 -0.82652 -0.46701
-1.26830 -0.82447 -0.46642
-1.26654 -0.82191 -0.46554
-1.26723 -0.82094 -0.46538
-1.27029 -0.82150 -0.46626
-1.27013 -0.81998 -0.46597
-1.26917 -0.81794 -0.46538
-1.26901 -0.81642 -0.46509
-1.27046 -0.81593 -0.46539
-1.27271 -0.81596 -0.46598
-1.27416 -0.81547 -0.46628
-1.27238 -0.81292 -0.46540
-1.27137 -0.81086 -0.46498
-1.27362 -0.81088 -0.46557
-1.27587 -0.81090 -0.46616
-1.27490 -0.80887 -0.46558
-1.27230 -0.80582 -0.46440
-1.27290 -0.80479 -0.46457
-1.27595 -0.80532 -0.46546
-1.27659 -0.80431 -0.46546
-1.27641 -0.80279 -0.46517
-1.28028 -0.80382 -0.46635
-1.27930 -0.80179 -0.46576
-1.27912 -0.80027 -0.46547
-1.27979 -0.79929 -0.46531
-1.27799 -0.79676 -0.46443
-1.27618 -0.79424 -0.46355
-1.27843 -0.79424 -0.46414
-1.27987 -0.79374 -0.46444
-1.28049 -0.79273 -0.46444
-1.28111 -0.79172 -0.46444
-1.28336 -0.79171 -0.46504
-1.28480 -0.79120 -0.46533
-1.28461 -0.78968 -0.46504
-1.28605 -0.78917 -0.46534
-1.28748 -0.78865 -0.46564
-1.28810 -0.78763 -0.46564
-1.28872 -0.78662 -0.46564
-1.28771 -0.78461 -0.46506
-1.28670 -0.78260 -0.46447
-1.28809 -0.78205 -0.46493
-1.29115 -0.78252 -0.46582
-1.29259 -0.78199 -0.46612
-1.29238 -0.78048 -0.46583
-1.29464 -0.78045 -0.46642
-1.29525 -0.77943 -0.46642
-1.29013 -0.77496 -0.46436
-1.29070 -0.77391 -0.46453
-1.29376 -0.77437 -0.46542
-1.29355 -0.77286 -0.46512
-1.29334 -0.77135 -0.46483
-1.29395 -0.77033 -0.46483
-1.29702 -0.77077 -0.46572
-1.29845 -0.77023 -0.46602
-1.29828 -0.76875 -0.46556
-1.29724 -0.76675 -0.46498
-1.29949 -0.76670 -0.46557
-1.30091 -0.76616 -0.46587
-1.29822 -0.76319 -0.46469
-1.29800 -0.76168 -0.46440
-1.30111 -0.76213 -0.46512
-1.30336 -0.76207 -0.46572
-1.30396 -0.76104 -0.46572
-1.30291 -0.75905 -0.46513
-1.30186 -0.75706 -0.46455
-1.30245 -0.75603 -0.46455
-1.30470 -0.75596 -0.46514
-1.30861 -0.75685 -0.46632
-1.30920 -0.75581 -0.46633
-1.30731 -0.75335 -0.46544
-1.30791 -0.75232 -0.46545
-1.30928 -0.75174 -0.46591
-1.30987 -0.75070 -0.46591
-1.31129 -0.75014 -0.46621
-1.31106 -0.74863 -0.46592
-1.31077 -0.74710 -0.46579
-1.31053 -0.74559 -0.46550
-1.31120 -0.74461 -0.46517
-1.31258 -0.74402 -0.46564
-1.31067 -0.74157 -0.46475
-1.31038 -0.74004 -0.46463
-1.31262 -0.73995 -0.46522
-1.31575 -0.74034 -0.46594
-1.31295 -0.73741 -0.46493
-1.31358 -0.73640 -0.46477
-1.31583 -0.73629 -0.46536
-1.31807 -0.73618 -0.46596
-1.31698 -0.73421 -0.46537
-1.31589 -0.73225 -0.46478
-1.31818 -0.73216 -0.46521
-1.32039 -0.73202 -0.46597
-1.32013 -0.73052 -0.46568
-1.31819 -0.72809 -0.46479
-1.31877 -0.72705 -0.46480
-1.32185 -0.72739 -0.46569
-1.32326 -0.72681 -0.46598
-1.32048 -0.72392 -0.46481
-1.31937 -0.72196 -0.46422
-1.32325 -0.72273 -0.46557
-1.32550 -0.72260 -0.46616
-1.32271 -0.71973 -0.46498
-1.32328 -0.71868 -0.46498
-1.32636 -0.71901 -0.46587
-1.32777 -0.71841 -0.46617
-1.32665 -0.71646 -0.46558
-1.32381 -0.71357 -0.46457
-1.32437 -0.71253 -0.46457
-1.32661 -0.71239 -0.46517
-1.32885 -0.71225 -0.46576
-1.32941 -0.71120 -0.46576
-1.33165 -0.71106 -0.46636
-1.33226 -0.71004 -0.46620
-1.33197 -0.70854 -0.46590
-1.33337 -0.70794 -0.46620
-1.33646 -0.70824 -0.46709
-1.33701 -0.70719 -0.46709
-1.33334 -0.70391 -0.46562
-1.33225 -0.70199 -0.46487
-1.33364 -0.70139 -0.46517
-1.33504 -0.70078 -0.46547
-1.33559 -0.69973 -0.46547
-1.33618 -0.69871 -0.46531
-1.33668 -0.69764 -0.46547
-1.33728 -0.69661 -0.46531
-1.33947 -0.69642 -0.46607
-1.33747 -0.69404 -0.46519
-1.33717 -0.69255 -0.46490
