-1.82347 -0.75933 -0.30722
-1.83222 -0.76129 -0.30902
-1.84288 -0.76402 -0.31050
-1.85444 -0.76710 -0.31235
-1.86326 -0.76904 -0.31374
-1.87026 -0.77021 -0.31482
-1.87726 -0.77136 -0.31590
-1.88241 -0.77175 -0.31689
-1.88667 -0.77176 -0.31751
-1.89094 -0.77177 -0.31813
-1.89521 -0.77177 -0.31875
-1.89856 -0.77140 -0.31921
-1.90100 -0.77065 -0.31952
-1.90252 -0.76952 -0.31968
-1.90404 -0.76840 -0.31984
-1.90464 -0.76690 -0.31984
-1.90799 -0.76650 -0.32031
-1.91135 -0.76611 -0.32077
-1.90923 -0.76351 -0.32010
-1.90524 -0.76018 -0.31933
-1.89023 -0.75247 -0.31672
-1.83756 -0.72983 -0.30780
-1.79774 -0.71238 -0.30084
-1.69894 -0.97190 -0.30554
-1.82927 -1.04454 -0.32883
-1.85413 -1.05680 -0.33315
-1.85922 -1.05776 -0.33415
-1.85920 -1.05580 -0.33400
-1.86089 -1.05482 -0.33416
-1.86086 -1.05287 -0.33401
-1.85997 -1.05043 -0.33371
-1.86077 -1.04894 -0.33393
-1.86159 -1.04748 -0.33394
-1.85900 -1.04409 -0.33310
-1.85896 -1.04214 -0.33295
-1.85892 -1.04019 -0.33280
-1.85888 -1.03824 -0.33265
-1.85714 -1.03535 -0.33197
-1.85709 -1.03340 -0.33182
-1.85790 -1.03194 -0.33182
-1.85785 -1.02999 -0.33167
-1.85783 -1.02806 -0.33130
-1.85777 -1.02612 -0.33114
-1.85772 -1.02418 -0.33099
-1.85852 -1.02271 -0.33100
-1.85933 -1.02124 -0.33100
-1.85834 -1.01879 -0.33114
-1.85831 -1.01687 -0.33077
-1.85998 -1.01588 -0.33093
-1.86078 -1.01441 -0.33093
-1.85810 -1.01105 -0.33032
-1.85713 -1.00863 -0.33024
-1.85793 -1.00716 -0.33024
-1.85875 -1.00571 -0.33002
-1.85780 -1.00330 -0.32971
-1.85505 -0.99993 -0.32954
-1.85500 -0.99801 -0.32917
-1.85579 -0.99656 -0.32918
-1.85744 -0.99557 -0.32933
-1.85561 -0.99271 -0.32887
-1.85638 -0.99125 -0.32888
-1.85629 -0.98933 -0.32873
-1.85622 -0.98742 -0.32836
-1.85700 -0.98596 -0.32836
-1.85777 -0.98450 -0.32836
-1.85767 -0.98258 -0.32821
-1.85407 -0.97881 -0.32745
-1.85309 -0.97644 -0.32714
-1.85211 -0.97406 -0.32684
-1.85025 -0.97123 -0.32638
-1.85014 -0.96931 -0.32623
-1.85262 -0.96876 -0.32676
-1.85338 -0.96730 -0.32676
-1.85063 -0.96402 -0.32615
-1.84963 -0.96166 -0.32584
-1.85211 -0.96110 -0.32637
-1.84763 -0.95693 -0.32523
-1.85603 -0.95574 -0.32632
-1.85235 -0.95201 -0.32577
-1.85310 -0.95055 -0.32578
-1.85385 -0.94910 -0.32578
-1.85550 -0.94810 -0.32572
-1.85536 -0.94620 -0.32557
-1.85520 -0.94428 -0.32564
-1.85420 -0.94194 -0.32511
-1.85318 -0.93959 -0.32481
-1.85304 -0.93769 -0.32466
-1.85380 -0.93624 -0.32444
-1.85454 -0.93479 -0.32445
-1.85350 -0.93244 -0.32414
-1.85335 -0.93054 -0.32399
-1.85408 -0.92909 -0.32400
-1.85393 -0.92719 -0.32385
-1.85466 -0.92573 -0.32385
-1.85627 -0.92471 -0.32401
-1.85080 -0.89314 -0.32135
-1.84972 -0.89082 -0.32104
-1.84955 -0.88896 -0.32068
-1.85022 -0.88749 -0.32090
-1.85003 -0.88561 -0.32075
-1.85072 -0.88416 -0.32075
-1.85141 -0.88270 -0.32075
-1.85121 -0.88082 -0.32060
-1.85101 -0.87894 -0.32045
-1.85084 -0.87708 -0.32009
-1.85060 -0.87519 -0.32015
-1.85037 -0.87330 -0.32021
-1.85016 -0.87142 -0.32006
-1.84905 -0.86913 -0.31976
-1.84976 -0.86769 -0.31955
-1.84952 -0.86581 -0.31961
-1.85017 -0.86434 -0.31983
-1.85088 -0.86290 -0.31962
-1.84746 -0.83495 -0.31693
-1.84542 -0.83228 -0.31647
-1.84607 -0.83083 -0.31647
-1.84759 -0.82977 -0.31684
-1.84915 -0.82872 -0.31700
-1.84980 -0.82726 -0.31700
-1.84864 -0.82500 -0.31670
-1.84745 -0.82273 -0.31660
-1.84629 -0.82047 -0.31630
-1.84604 -0.81862 -0.31615
-1.84668 -0.81717 -0.31615
-1.84729 -0.81570 -0.31637
-1.84706 -0.81386 -0.31600
-1.84770 -0.81241 -0.31601
-1.84743 -0.81056 -0.31585
-1.84716 -0.80871 -0.31570
-1.84689 -0.80686 -0.31555
-1.84752 -0.80541 -0.31556
-1.84728 -0.80357 -0.31519
-1.84791 -0.80212 -0.31520
-1.84673 -0.79988 -0.31489
-1.84554 -0.79765 -0.31459
-1.84617 -0.79619 -0.31459
-1.84679 -0.79474 -0.31459
-1.84469 -0.79212 -0.31413
-1.84347 -0.78987 -0.31404
-1.84591 -0.78920 -0.31435
-1.84837 -0.78854 -0.31445
-1.84172 -0.78399 -0.31322
-1.85049 -0.78600 -0.31483
-1.84838 -0.78339 -0.31437
-1.76288 -0.71627 -0.29783
-1.77351 -0.71897 -0.29954
-1.78598 -0.72239 -0.30155
-1.79296 -0.72357 -0.30264
-1.79353 -0.72216 -0.30264
-1.80143 -0.72369 -0.30388
-1.82309 -0.73073 -0.30744
-1.82914 -0.73149 -0.30858
-1.80402 -0.71980 -0.30425
-1.82560 -1.04436 -0.33035
-1.85130 -1.05712 -0.33486
-1.85643 -1.05811 -0.33564
-1.85729 -1.05666 -0.33542
-1.85727 -1.05471 -0.33526
-1.85807 -1.05322 -0.33549
-1.85804 -1.05127 -0.33534
-1.85800 -1.04932 -0.33519
-1.85883 -1.04785 -0.33519
-1.85876 -1.04589 -0.33527
-1.85873 -1.04393 -0.33511
-1.85696 -1.04102 -0.33465
-1.85778 -1.03955 -0.33466
-1.85860 -1.03809 -0.33466
-1.85683 -1.03518 -0.33420
-1.85762 -1.03370 -0.33442
-1.85846 -1.03225 -0.33420
-1.85841 -1.03030 -0.33405
-1.85749 -1.02788 -0.33375
-1.85657 -1.02546 -0.33344
-1.85565 -1.02304 -0.33313
-1.85646 -1.02157 -0.33314
-1.85640 -1.01963 -0.33299
-1.85633 -1.01769 -0.33283
-1.85627 -1.01575 -0.33268
-1.85797 -1.01478 -0.33262
-1.85522 -1.00949 -0.33185
-1.85338 -1.00659 -0.33161
-1.85591 -1.00607 -0.33193
-1.85844 -1.00554 -0.33224
-1.85663 -1.00267 -0.33178
-1.85394 -0.99933 -0.33116
-1.85383 -0.99738 -0.33123
-1.85635 -0.99686 -0.33154
-1.85713 -0.99540 -0.33155
-1.85356 -0.99161 -0.33077
-1.85346 -0.98969 -0.33062
-1.85686 -0.98963 -0.33109
-1.85589 -0.98724 -0.33078
-1.85317 -0.98393 -0.33017
-1.85394 -0.98247 -0.33017
-1.85472 -0.98102 -0.33017
-1.85461 -0.97910 -0.33002
-1.85538 -0.97764 -0.33003
-1.85440 -0.97526 -0.32972
-1.85169 -0.97198 -0.32888
-1.85158 -0.97007 -0.32873
-1.85234 -0.96862 -0.32873
-1.85223 -0.96670 -0.32858
-1.85214 -0.96481 -0.32821
-1.85290 -0.96335 -0.32821
-1.85187 -0.96097 -0.32813
-1.85002 -0.95817 -0.32745
-1.85253 -0.95762 -0.32776
-1.85679 -0.95798 -0.32838
-1.85491 -0.95516 -0.32792
-1.85214 -0.95190 -0.32731
-1.85198 -0.94998 -0.32737
-1.85184 -0.94807 -0.32722
-1.85259 -0.94662 -0.32722
-1.85333 -0.94516 -0.32723
-1.85316 -0.94324 -0.32730
-1.85302 -0.94134 -0.32714
-1.85288 -0.93943 -0.32699
-1.85273 -0.93753 -0.32684
-1.85170 -0.93519 -0.32653
-1.85244 -0.93373 -0.32654
-1.85229 -0.93183 -0.32638
-1.85128 -0.92950 -0.32586
-1.85110 -0.92759 -0.32593
-1.85183 -0.92614 -0.32593
-1.85435 -0.92558 -0.32603
-1.84712 -0.89315 -0.32304
-1.84604 -0.89084 -0.32273
-1.84849 -0.89023 -0.32326
-1.85097 -0.88964 -0.32357
-1.84989 -0.88733 -0.32327
-1.84883 -0.88504 -0.32274
-1.84863 -0.88316 -0.32259
-1.84933 -0.88170 -0.32260
-1.84912 -0.87983 -0.32244
-1.84895 -0.87797 -0.32208
-1.84875 -0.87609 -0.32193
-1.84854 -0.87421 -0.32177
-1.84744 -0.87192 -0.32147
-1.84723 -0.87005 -0.32131
-1.84702 -0.86818 -0.32116
-1.84773 -0.86674 -0.32095
-1.84841 -0.86529 -0.32095
-1.84995 -0.86424 -0.32133
-1.84917 -0.83747 -0.31973
-1.84533 -0.83399 -0.31896
-1.84418 -0.83172 -0.31865
-1.84483 -0.83027 -0.31865
-1.84549 -0.82882 -0.31866
-1.84524 -0.82696 -0.31850
-1.84501 -0.82512 -0.31814
-1.84656 -0.82407 -0.31830
-1.84628 -0.82221 -0.31836
-1.84512 -0.81995 -0.31805
-1.84486 -0.81810 -0.31790
-1.84550 -0.81665 -0.31790
-1.84524 -0.81480 -0.31775
-1.84588 -0.81334 -0.31776
-1.84652 -0.81189 -0.31776
-1.84535 -0.80965 -0.31745
-1.84508 -0.80780 -0.31730
-1.84568 -0.80633 -0.31751
-1.84360 -0.80370 -0.31705
-1.84332 -0.80185 -0.31690
-1.84576 -0.80119 -0.31721
-1.84639 -0.79974 -0.31722
-1.84430 -0.79711 -0.31675
-1.84311 -0.79487 -0.31644
-1.84646 -0.79460 -0.31692
-1.84345 -0.79158 -0.31630
-1.84501 -0.79054 -0.31624
-1.84836 -0.79025 -0.31672
-1.83444 -0.78259 -0.31423
-1.84142 -0.78386 -0.31532
-1.87840 -0.79786 -0.32155
-1.79265 -1.02739 -0.32765
-1.84493 -1.05541 -0.33682
-1.85348 -1.05837 -0.33824
-1.85517 -1.05739 -0.33840
-1.85600 -1.05593 -0.33840
-1.85598 -1.05398 -0.33825
-1.85595 -1.05202 -0.33809
-1.85509 -1.04960 -0.33756
-1.85591 -1.04814 -0.33757
-1.85671 -1.04666 -0.33779
-1.85584 -1.04424 -0.33726
-1.85577 -1.04228 -0.33733
-1.85576 -1.04035 -0.33696
-1.85483 -1.03790 -0.33687
-1.85392 -1.03547 -0.33656
-1.85387 -1.03353 -0.33641
-1.85469 -1.03207 -0.33641
-1.85547 -1.03058 -0.33664
-1.85542 -1.02864 -0.33648
-1.85450 -1.02622 -0.33618
-1.85444 -1.02428 -0.33602
-1.85439 -1.02234 -0.33587
-1.85433 -1.02040 -0.33572
-1.85340 -1.01799 -0.33541
-1.85333 -1.01605 -0.33525
-1.85673 -1.01601 -0.33573
-1.85652 -0.98945 -0.33352
-1.85209 -0.98522 -0.33237
-1.85112 -0.98284 -0.33206
-1.85099 -0.98091 -0.33212
-1.85176 -0.97945 -0.33213
-1.85253 -0.97800 -0.33213
-1.85326 -0.97652 -0.33236
-1.85403 -0.97507 -0.33236
-1.85217 -0.97223 -0.33189
-1.85206 -0.97032 -0.33174
-1.85194 -0.96841 -0.33159
-1.85095 -0.96604 -0.33128
-1.85086 -0.96414 -0.33091
-1.85074 -0.96223 -0.33075
-1.84975 -0.95987 -0.33044
-1.84871 -0.95749 -0.33035
-1.84946 -0.95604 -0.33036
-1.85376 -0.95641 -0.33077
-1.85451 -0.95496 -0.33077
-1.84998 -0.95079 -0.32983
-1.84988 -0.94890 -0.32946
-1.85060 -0.94743 -0.32969
-1.84958 -0.94508 -0.32938
-1.84944 -0.94318 -0.32922
-1.85018 -0.94172 -0.32923
-1.85095 -0.94029 -0.32901
-1.84990 -0.93792 -0.32892
-1.85060 -0.93645 -0.32914
-1.85045 -0.93455 -0.32899
-1.85119 -0.93310 -0.32899
-1.85104 -0.93120 -0.32884
-1.85000 -0.92886 -0.32853
-1.84805 -0.92606 -0.32828
-1.84878 -0.92461 -0.32828
-1.85042 -0.92361 -0.32823
-1.84934 -0.92127 -0.32814
-1.84653 -0.91805 -0.32751
-1.84813 -0.91704 -0.32767
-1.84888 -0.91560 -0.32746
-1.84517 -0.91196 -0.32668
-1.84323 -0.90920 -0.32621
-1.84483 -0.90819 -0.32637
-1.84469 -0.90632 -0.32600
-1.84362 -0.90400 -0.32569
-1.84344 -0.90212 -0.32554
-1.84131 -0.89749 -0.32492
-1.84611 -0.89446 -0.32519
-1.84678 -0.89299 -0.32541
-1.84748 -0.89154 -0.32541
-1.84640 -0.88923 -0.32510
-1.84710 -0.88778 -0.32510
-1.84777 -0.88631 -0.32532
-1.84757 -0.88443 -0.32517
-1.84645 -0.88212 -0.32508
-1.84625 -0.88024 -0.32492
-1.84697 -0.87880 -0.32471
-1.84763 -0.87734 -0.32493
-1.84743 -0.87546 -0.32478
-1.84547 -0.87276 -0.32409
-1.84526 -0.87089 -0.32394
-1.84594 -0.86944 -0.32394
-1.84573 -0.86757 -0.32379
-1.84551 -0.86570 -0.32364
-1.84530 -0.86383 -0.32349
-1.85048 -0.86448 -0.32406
-1.84158 -0.83403 -0.32125
-1.84043 -0.83177 -0.32094
-1.84198 -0.83073 -0.32110
-1.84354 -0.82969 -0.32126
-1.84325 -0.82782 -0.32132
-1.84300 -0.82596 -0.32116
-1.84368 -0.82453 -0.32095
-1.84433 -0.82308 -0.32096
-1.84407 -0.82122 -0.32080
-1.84382 -0.81937 -0.32065
-1.84449 -0.81794 -0.32044
-1.84513 -0.81649 -0.32045
-1.84487 -0.81463 -0.32029
-1.84283 -0.81200 -0.31961
-1.84347 -0.81055 -0.31962
-1.84410 -0.80910 -0.31962
-1.84293 -0.80686 -0.31931
-1.84175 -0.80462 -0.31900
-1.84238 -0.80317 -0.31900
-1.84302 -0.80172 -0.31901
-1.84364 -0.80027 -0.31901
-1.84427 -0.79882 -0.31902
-1.84218 -0.79619 -0.31855
-1.84368 -0.79512 -0.31892
-1.84246 -0.79288 -0.31882
-1.84127 -0.79065 -0.31851
-1.84374 -0.78999 -0.31862
-1.84251 -0.78775 -0.31852
-1.82496 -0.77855 -0.31538
-1.86101 -0.79220 -0.32151
-1.77270 -1.01781 -0.32634
-1.83862 -1.05373 -0.33833
-1.85145 -1.05914 -0.34054
-1.85311 -1.05815 -0.34092
-1.85308 -1.05620 -0.34077
-1.85309 -1.05427 -0.34039
-1.85478 -1.05329 -0.34055
-1.85561 -1.05183 -0.34056
-1.85472 -1.04939 -0.34025
-1.85382 -1.04696 -0.33993
-1.85379 -1.04501 -0.33978
-1.85461 -1.04355 -0.33979
-1.85371 -1.04112 -0.33947
-1.85367 -1.03917 -0.33932
-1.85455 -1.03774 -0.33888
-1.85534 -1.03626 -0.33910
-1.85360 -1.03337 -0.33841
-1.85265 -1.03093 -0.33832
-1.85347 -1.02947 -0.33833
-1.85431 -1.02803 -0.33811
-1.85425 -1.02608 -0.33796
-1.85417 -1.02413 -0.33802
-1.85327 -1.02173 -0.33749
-1.85405 -1.02025 -0.33772
-1.85225 -1.01736 -0.33725
-1.85562 -1.01730 -0.33795
-1.86335 -1.01963 -0.33921
-1.85534 -0.98882 -0.33557
-1.84914 -0.98365 -0.33432
-1.84904 -0.98173 -0.33416
-1.85068 -0.98074 -0.33432
-1.85145 -0.97929 -0.33433
-1.85134 -0.97737 -0.33417
-1.85208 -0.97590 -0.33440
-1.85197 -0.97399 -0.33424
-1.85186 -0.97207 -0.33409
-1.85087 -0.96970 -0.33378
-1.84988 -0.96733 -0.33347
-1.84886 -0.96495 -0.33337
-1.84962 -0.96349 -0.33338
-1.85037 -0.96204 -0.33338
-1.84937 -0.95968 -0.33307
-1.84837 -0.95732 -0.33276
-1.84912 -0.95586 -0.33276
-1.85251 -0.95577 -0.33324
-1.85855 -0.95704 -0.33397
-1.85052 -0.95107 -0.33239
-1.84863 -0.94826 -0.33193
-1.84762 -0.94591 -0.33161
-1.84572 -0.94311 -0.33114
-1.84561 -0.94122 -0.33077
-1.84723 -0.94022 -0.33093
-1.84885 -0.93922 -0.33109
-1.84874 -0.93734 -0.33072
-1.84856 -0.93542 -0.33079
-1.84753 -0.93308 -0.33048
-1.84738 -0.93118 -0.33032
-1.84899 -0.93017 -0.33048
-1.84972 -0.92872 -0.33049
-1.84692 -0.92550 -0.32986
-1.84588 -0.92316 -0.32955
-1.84657 -0.92170 -0.32977
-1.84641 -0.91981 -0.32961
-1.84713 -0.91836 -0.32962
-1.84874 -0.91734 -0.32978
-1.84766 -0.91500 -0.32968
-1.84575 -0.91225 -0.32900
-1.84643 -0.91078 -0.32922
-1.84715 -0.90933 -0.32922
-1.84612 -0.90702 -0.32869
-1.84506 -0.90470 -0.32838
-1.84577 -0.90326 -0.32838
-1.84559 -0.90137 -0.32823
-1.84363 -0.89862 -0.32776
-1.84348 -0.89676 -0.32739
-1.84596 -0.89617 -0.32771
-1.84577 -0.89429 -0.32756
-1.84467 -0.89197 -0.32746
-1.84540 -0.89053 -0.32725
-1.84609 -0.88908 -0.32725
-1.84587 -0.88719 -0.32731
-1.84568 -0.88531 -0.32716
-1.84548 -0.88343 -0.32700
-1.84617 -0.88198 -0.32701
-1.84686 -0.88053 -0.32701
-1.84577 -0.87823 -0.32670
-1.84465 -0.87592 -0.32660
-1.84533 -0.87447 -0.32661
-1.84602 -0.87302 -0.32661
-1.84581 -0.87115 -0.32646
-1.84560 -0.86928 -0.32630
-1.84449 -0.86699 -0.32599
-1.84428 -0.86512 -0.32583
-1.84585 -0.86409 -0.32600
-1.84130 -0.83391 -0.32316
-1.84015 -0.83165 -0.32284
-1.84080 -0.83020 -0.32285
-1.84146 -0.82875 -0.32285
-1.84298 -0.82769 -0.32323
-1.84273 -0.82584 -0.32307
-1.84247 -0.82399 -0.32292
-1.84132 -0.82173 -0.32260
-1.84106 -0.81988 -0.32245
-1.84170 -0.81843 -0.32245
-1.84325 -0.81739 -0.32261
-1.84389 -0.81593 -0.32262
-1.84363 -0.81408 -0.32246
-1.84246 -0.81184 -0.32215
-1.84225 -0.81002 -0.32157
-1.84108 -0.80778 -0.32126
-1.84169 -0.80631 -0.32148
-1.84232 -0.80487 -0.32148
-1.84205 -0.80302 -0.32133
-1.84086 -0.80078 -0.32101
-1.84149 -0.79934 -0.32102
-1.84031 -0.79710 -0.32071
-1.83912 -0.79487 -0.32039
-1.84065 -0.79381 -0.32055
-1.84034 -0.79196 -0.32061
-1.84005 -0.79012 -0.32046
-1.84158 -0.78907 -0.32062
-1.84492 -0.78878 -0.32110
-1.83013 -0.78076 -0.31820
-1.83980 -0.78317 -0.32000
-1.75888 -1.01172 -0.32525
-1.83503 -1.05360 -0.33919
-1.84871 -1.05951 -0.34156
-1.85212 -1.05953 -0.34204
-1.85292 -1.05805 -0.34227
-1.85290 -1.05610 -0.34211
-1.85201 -1.05366 -0.34180
-1.85195 -1.05169 -0.34187
-1.85278 -1.05023 -0.34187
-1.85361 -1.04877 -0.34188
-1.85274 -1.04635 -0.34134
-1.85268 -1.04439 -0.34141
-1.85264 -1.04244 -0.34125
-1.85260 -1.04049 -0.34110
-1.85342 -1.03903 -0.34110
-1.85341 -1.03710 -0.34073
-1.85336 -1.03516 -0.34057
-1.85245 -1.03274 -0.34026
-1.85154 -1.03031 -0.33995
-1.85235 -1.02885 -0.33995
-1.85144 -1.02643 -0.33964
-1.85138 -1.02449 -0.33948
-1.85219 -1.02303 -0.33949
-1.85126 -1.02062 -0.33917
-1.85034 -1.01821 -0.33886
-1.84941 -1.01580 -0.33855
-1.85367 -1.01623 -0.33918
-1.84731 -0.98640 -0.33629
-1.84808 -0.98495 -0.33629
-1.84711 -0.98257 -0.33598
-1.84788 -0.98112 -0.33598
-1.84869 -0.97969 -0.33577
-1.84945 -0.97823 -0.33577
-1.84935 -0.97632 -0.33561
-1.84924 -0.97440 -0.33546
-1.85000 -0.97295 -0.33546
-1.85077 -0.97150 -0.33547
-1.84978 -0.96913 -0.33515
-1.84967 -0.96722 -0.33500
-1.85042 -0.96576 -0.33500
-1.84943 -0.96340 -0.33469
-1.84843 -0.96103 -0.33438
-1.84743 -0.95867 -0.33406
-1.84816 -0.95720 -0.33429
-1.85066 -0.95666 -0.33461
-1.84108 -0.92982 -0.33132
-1.84269 -0.92882 -0.33148
-1.84874 -0.93005 -0.33222
-1.84683 -0.92727 -0.33175
-1.84402 -0.92405 -0.33112
-1.84475 -0.92260 -0.33112
-1.84547 -0.92115 -0.33113
-1.84619 -0.91970 -0.33113
-1.84600 -0.91779 -0.33119
-1.84583 -0.91590 -0.33104
-1.84478 -0.91358 -0.33072
-1.84373 -0.91125 -0.33041
-1.84356 -0.90936 -0.33026
-1.84339 -0.90748 -0.33010
-1.84407 -0.90602 -0.33032
-1.84478 -0.90457 -0.33032
-1.84460 -0.90268 -0.33017
-1.84442 -0.90080 -0.33001
-1.84247 -0.89805 -0.32954
-1.84320 -0.89662 -0.32933
-1.84476 -0.89559 -0.32971
-1.84457 -0.89371 -0.32955
-1.84350 -0.89140 -0.32924
-1.84423 -0.88997 -0.32903
-1.84493 -0.88852 -0.32903
-1.84298 -0.88580 -0.32834
-1.84368 -0.88435 -0.32835
-1.84526 -0.88333 -0.32851
-1.84506 -0.88145 -0.32835
-1.84486 -0.87958 -0.32820
-1.84466 -0.87770 -0.32804
-1.84357 -0.87541 -0.32773
-1.84158 -0.87269 -0.32726
-1.84405 -0.87209 -0.32758
-1.84559 -0.87105 -0.32796
-1.84360 -0.86833 -0.32748
-1.84163 -0.86564 -0.32680
-1.84406 -0.86502 -0.32733
-1.84742 -0.86482 -0.32781
-1.84363 -0.86128 -0.32702
-1.83894 -0.85733 -0.32607
-1.83868 -0.85545 -0.32613
-1.83756 -0.85318 -0.32582
-1.83733 -0.85132 -0.32566
-1.83800 -0.84988 -0.32567
-1.83860 -0.83442 -0.32453
-1.83745 -0.83217 -0.32422
-1.83900 -0.83113 -0.32438
-1.84056 -0.83009 -0.32454
-1.84121 -0.82864 -0.32455
-1.84186 -0.82719 -0.32455
-1.84161 -0.82534 -0.32440
-1.84132 -0.82347 -0.32445
-1.84107 -0.82162 -0.32430
-1.83994 -0.81938 -0.32377
-1.84058 -0.81794 -0.32378
-1.84029 -0.81607 -0.32383
-1.84003 -0.81423 -0.32368
-1.84154 -0.81316 -0.32405
-1.84128 -0.81132 -0.32390
-1.83920 -0.80868 -0.32342
-1.83803 -0.80644 -0.32311
-1.83779 -0.80461 -0.32274
-1.83842 -0.80316 -0.32275
-1.83905 -0.80171 -0.32275
-1.83968 -0.80027 -0.32275
-1.84031 -0.79882 -0.32276
-1.84094 -0.79737 -0.32276
-1.84069 -0.79555 -0.32239
-1.83950 -0.79332 -0.32208
-1.83649 -0.79031 -0.32145
-1.83896 -0.78966 -0.32156
-1.84139 -0.78899 -0.32188
-1.83203 -0.78327 -0.32014
-1.83170 -0.78143 -0.32019
-1.83735 -1.05493 -0.34144
-1.84846 -1.05937 -0.34335
-1.85104 -1.05891 -0.34345
-1.85099 -1.05694 -0.34352
-1.85096 -1.05499 -0.34336
-1.85179 -1.05353 -0.34337
-1.85259 -1.05205 -0.34359
-1.85256 -1.05010 -0.34344
-1.85167 -1.04767 -0.34313
-1.85163 -1.04572 -0.34297
-1.85160 -1.04378 -0.34281
-1.85070 -1.04135 -0.34250
-1.85066 -1.03940 -0.34234
-1.85148 -1.03794 -0.34235
-1.85316 -1.03696 -0.34251
-1.85225 -1.03454 -0.34220
-1.85137 -1.03213 -0.34166
-1.85046 -1.02971 -0.34134
-1.85041 -1.02777 -0.34119
-1.85122 -1.02631 -0.34119
-1.85206 -1.02487 -0.34097
-1.85200 -1.02293 -0.34082
-1.85111 -1.02053 -0.34028
-1.85015 -1.01810 -0.34019
-1.85095 -1.01664 -0.34019
-1.85175 -1.01518 -0.34020
-1.85061 -0.98816 -0.33824
-1.84790 -0.98485 -0.33761
-1.84693 -0.98247 -0.33730
-1.84770 -0.98102 -0.33730
-1.84847 -0.97957 -0.33730
-1.84836 -0.97766 -0.33715
-1.84826 -0.97574 -0.33699
-1.84818 -0.97385 -0.33662
-1.84804 -0.97192 -0.33668
-1.84880 -0.97047 -0.33669
-1.84869 -0.96856 -0.33653
-1.84857 -0.96664 -0.33637
-1.84845 -0.96474 -0.33622
-1.84746 -0.96237 -0.33591
-1.84734 -0.96046 -0.33575
-1.84719 -0.95854 -0.33581
-1.84618 -0.95618 -0.33550
-1.84869 -0.95564 -0.33582
-1.84925 -0.92849 -0.33375
-1.84648 -0.92528 -0.33290
-1.84544 -0.92295 -0.33258
-1.84532 -0.92107 -0.33221
-1.84512 -0.91916 -0.33227
-1.84496 -0.91727 -0.33211
-1.84568 -0.91583 -0.33212
-1.84371 -0.91304 -0.33186
-1.84354 -0.91116 -0.33171
-1.84337 -0.90927 -0.33155
-1.84320 -0.90739 -0.33139
-1.84299 -0.90549 -0.33145
-1.84370 -0.90404 -0.33146
-1.84264 -0.90172 -0.33114
-1.84246 -0.89984 -0.33099
-1.84317 -0.89840 -0.33099
-1.84387 -0.89695 -0.33099
-1.84635 -0.89636 -0.33132
-1.84705 -0.89491 -0.33132
-1.84331 -0.89131 -0.33053
-1.84137 -0.88859 -0.32984
-1.84296 -0.88757 -0.33000
-1.84366 -0.88612 -0.33000
-1.84346 -0.88425 -0.32985
-1.84326 -0.88237 -0.32969
-1.84396 -0.88092 -0.32970
-1.84376 -0.87905 -0.32954
-1.84355 -0.87718 -0.32939
-1.84246 -0.87488 -0.32907
-1.84136 -0.87259 -0.32876
-1.84115 -0.87072 -0.32860
-1.84273 -0.86969 -0.32876
-1.84070 -0.86697 -0.32850
-1.83870 -0.86426 -0.32803
-1.84027 -0.86324 -0.32819
-1.84273 -0.86263 -0.32851
-1.84159 -0.86033 -0.32841
-1.83958 -0.85763 -0.32794
-1.83936 -0.85577 -0.32778
-1.84003 -0.85433 -0.32778
-1.83801 -0.85163 -0.32731
-1.83778 -0.84977 -0.32715
-1.83845 -0.84833 -0.32716
-1.83732 -0.84606 -0.32684
-1.83709 -0.84420 -0.32669
-1.83599 -0.84195 -0.32616
-1.83575 -0.84010 -0.32600
-1.83554 -0.83826 -0.32564
-1.83617 -0.83680 -0.32585
-1.83772 -0.83577 -0.32601
-1.83841 -0.83434 -0.32581
-1.83817 -0.83249 -0.32565
-1.83795 -0.83065 -0.32528
-1.83860 -0.82921 -0.32529
-1.83922 -0.82775 -0.32550
-1.83897 -0.82589 -0.32535
-1.83965 -0.82446 -0.32514
-1.84027 -0.82300 -0.32535
-1.83821 -0.82034 -0.32488
-1.83792 -0.81848 -0.32493
-1.83856 -0.81704 -0.32494
-1.83920 -0.81559 -0.32494
-1.83804 -0.81334 -0.32463
-1.83868 -0.81190 -0.32463
-1.83928 -0.81044 -0.32484
-1.83902 -0.80859 -0.32469
-1.83784 -0.80635 -0.32437
-1.83757 -0.80451 -0.32422
-1.83823 -0.80308 -0.32401
-1.83886 -0.80163 -0.32401
-1.83859 -0.79979 -0.32386
-1.83922 -0.79835 -0.32386
-1.83894 -0.79651 -0.32371
-1.83956 -0.79506 -0.32371
-1.83837 -0.79283 -0.32339
-1.83628 -0.79022 -0.32292
-1.83965 -0.78995 -0.32319
-1.84208 -0.78928 -0.32351
-1.83272 -0.78356 -0.32176
-1.83333 -0.78212 -0.32177
-1.70464 -0.98231 -0.31833
-1.82350 -1.04889 -0.34037
-1.84487 -1.05925 -0.34421
-1.84913 -1.05975 -0.34485
-1.84996 -1.05829 -0.34486
-1.84994 -1.05635 -0.34470
-1.85077 -1.05489 -0.34471
-1.85075 -1.05294 -0.34455
-1.85068 -1.05097 -0.34462
-1.84980 -1.04854 -0.34430
-1.84890 -1.04610 -0.34399
-1.84973 -1.04465 -0.34399
-1.84963 -1.04267 -0.34428
-1.84876 -1.04026 -0.34374
-1.84872 -1.03831 -0.34358
-1.84957 -1.03687 -0.34336
-1.85038 -1.03541 -0.34337
-1.85034 -1.03347 -0.34321
-1.85029 -1.03153 -0.34306
-1.85027 -1.02961 -0.34268
-1.85022 -1.02767 -0.34252
-1.85017 -1.02573 -0.34237
-1.84925 -1.02331 -0.34205
-1.84919 -1.02138 -0.34190
-1.84823 -1.01895 -0.34180
-1.84903 -1.01749 -0.34180
-1.85416 -1.01841 -0.34261
-1.84600 -0.98571 -0.33921
-1.84503 -0.98333 -0.33889
-1.84584 -0.98189 -0.33867
-1.84661 -0.98044 -0.33868
-1.84650 -0.97853 -0.33852
-1.84553 -0.97615 -0.33821
-1.84716 -0.97517 -0.33837
-1.84796 -0.97373 -0.33815
-1.84782 -0.97180 -0.33822
-1.84599 -0.96899 -0.33752
-1.84675 -0.96754 -0.33753
-1.84751 -0.96609 -0.33753
-1.84652 -0.96372 -0.33721
-1.84552 -0.96136 -0.33690
-1.84449 -0.95898 -0.33680
-1.84440 -0.95710 -0.33643
-1.84775 -0.95699 -0.33713
-1.85639 -0.95962 -0.33857
-1.84286 -0.92527 -0.33415
-1.84359 -0.92383 -0.33415
-1.84343 -0.92194 -0.33399
-1.84238 -0.91961 -0.33368
-1.84399 -0.91860 -0.33384
-1.84471 -0.91715 -0.33385
-1.84454 -0.91526 -0.33369
-1.84346 -0.91292 -0.33359
-1.84329 -0.91104 -0.33343
-1.84224 -0.90871 -0.33312
-1.84206 -0.90683 -0.33296
-1.84277 -0.90538 -0.33296
-1.84257 -0.90348 -0.33302
-1.84239 -0.90160 -0.33287
-1.84221 -0.89972 -0.33271
-1.84203 -0.89784 -0.33255
-1.84276 -0.89641 -0.33234
-1.84435 -0.89539 -0.33251
-1.83490 -0.88547 -0.33043
-1.83559 -0.88402 -0.33044
-1.83988 -0.88431 -0.33087
-1.84235 -0.88372 -0.33119
-1.84123 -0.88140 -0.33109
-1.84017 -0.87912 -0.33056
-1.84175 -0.87810 -0.33072
-1.84063 -0.87579 -0.33062
-1.83870 -0.87310 -0.32972
-1.83850 -0.87123 -0.32956
-1.83918 -0.86979 -0.32956
-1.84072 -0.86875 -0.32994
-1.84051 -0.86688 -0.32978
-1.83940 -0.86460 -0.32947
-1.83740 -0.86189 -0.32899
-1.83715 -0.86001 -0.32905
-1.83869 -0.85898 -0.32943
-1.84026 -0.85795 -0.32959
-1.83914 -0.85567 -0.32927
-1.83802 -0.85339 -0.32896
-1.83783 -0.85155 -0.32859
-1.83760 -0.84969 -0.32843
-1.83734 -0.84782 -0.32849
-1.83803 -0.84639 -0.32828
-1.83870 -0.84494 -0.32828
-1.83756 -0.84267 -0.32796
-1.83553 -0.84000 -0.32749
-1.83529 -0.83815 -0.32733
-1.83595 -0.83671 -0.32733
-1.83750 -0.83567 -0.32750
-1.83816 -0.83423 -0.32750
-1.83615 -0.83157 -0.32681
-1.83770 -0.83054 -0.32698
-1.83835 -0.82909 -0.32698
-1.83810 -0.82724 -0.32682
-1.83782 -0.82538 -0.32688
-1.83847 -0.82393 -0.32688
-1.83821 -0.82208 -0.32673
-1.83706 -0.81983 -0.32641
-1.83587 -0.81757 -0.32630
-1.83651 -0.81612 -0.32631
-1.83805 -0.81508 -0.32647
-1.83779 -0.81323 -0.32632
-1.83752 -0.81139 -0.32616
-1.83635 -0.80915 -0.32584
-1.83609 -0.80731 -0.32568
-1.83672 -0.80586 -0.32569
-1.83735 -0.80442 -0.32569
-1.83798 -0.80297 -0.32570
-1.83771 -0.80113 -0.32554
-1.83653 -0.79890 -0.32522
-1.83719 -0.79747 -0.32501
-1.83781 -0.79602 -0.32502
-1.83753 -0.79418 -0.32486
-1.83544 -0.79156 -0.32438
-1.83609 -0.79013 -0.32418
-1.84034 -0.79025 -0.32482
-1.83733 -0.78724 -0.32419
-1.82978 -0.78231 -0.32275
-1.85854 -0.79287 -0.32771
-1.73260 -0.99842 -0.32549
-1.82749 -1.05119 -0.34316
-1.84459 -1.05908 -0.34622
-1.84796 -1.05908 -0.34693
-1.84879 -1.05762 -0.34693
-1.84966 -1.05618 -0.34671
-1.84960 -1.05422 -0.34678
-1.84957 -1.05227 -0.34663
-1.84954 -1.05032 -0.34647
-1.84865 -1.04789 -0.34615
-1.84948 -1.04643 -0.34615
-1.84944 -1.04449 -0.34600
-1.84944 -1.04256 -0.34562
-1.84854 -1.04013 -0.34530
-1.84850 -1.03819 -0.34514
-1.84842 -1.03623 -0.34521
-1.84841 -1.03431 -0.34483
-1.84839 -1.03239 -0.34445
-1.84748 -1.02997 -0.34413
-1.84743 -1.02803 -0.34397
-1.84910 -1.02705 -0.34414
-1.84905 -1.02511 -0.34398
-1.84727 -1.02222 -0.34351
-1.84548 -1.01933 -0.34303
-1.84628 -1.01787 -0.34303
-1.84881 -1.01737 -0.34336
-1.85481 -1.01876 -0.34432
-1.84407 -0.98467 -0.34020
-1.84310 -0.98230 -0.33989
-1.84562 -0.98178 -0.34021
-1.84548 -0.97985 -0.34027
-1.84451 -0.97747 -0.33996
-1.84530 -0.97604 -0.33974
-1.84607 -0.97459 -0.33974
-1.84593 -0.97266 -0.33981
-1.84495 -0.97029 -0.33949
-1.84571 -0.96884 -0.33949
-1.84384 -0.96602 -0.33901
-1.84373 -0.96411 -0.33886
-1.84445 -0.96265 -0.33908
-1.84433 -0.96074 -0.33892
-1.84333 -0.95838 -0.33860
-1.84233 -0.95602 -0.33829
-1.84484 -0.95548 -0.33861
-1.85432 -0.95855 -0.34044
-1.84103 -0.92617 -0.33550
-1.84088 -0.92428 -0.33534
-1.84160 -0.92283 -0.33535
-1.84232 -0.92139 -0.33535
-1.84216 -0.91950 -0.33519
-1.84109 -0.91715 -0.33509
-1.84181 -0.91571 -0.33509
-1.84252 -0.91426 -0.33510
-1.84324 -0.91281 -0.33510
-1.84216 -0.91047 -0.33500
-1.84107 -0.90814 -0.33490
-1.84007 -0.90585 -0.33415
-1.84078 -0.90440 -0.33415
-1.84235 -0.90338 -0.33453
-1.84306 -0.90193 -0.33454
-1.84202 -0.89963 -0.33400
-1.84184 -0.89775 -0.33385
-1.84162 -0.89585 -0.33390
-1.84410 -0.89527 -0.33423
-1.84023 -0.86675 -0.33171
-1.83644 -0.86320 -0.33091
-1.83623 -0.86134 -0.33075
-1.83687 -0.85988 -0.33097
-1.83754 -0.85844 -0.33097
-1.83825 -0.85701 -0.33076
-1.83982 -0.85598 -0.33093
-1.84045 -0.85452 -0.33114
-1.84026 -0.85267 -0.33077
-1.83824 -0.84999 -0.33029
-1.83801 -0.84813 -0.33014
-1.83868 -0.84668 -0.33014
-1.83758 -0.84443 -0.32961
-1.83731 -0.84256 -0.32966
-1.83797 -0.84112 -0.32967
-1.83866 -0.83969 -0.32946
-1.83573 -0.83661 -0.32882
-1.83639 -0.83516 -0.32882
-1.83977 -0.83496 -0.32910
-1.83680 -0.83187 -0.32867
-1.83475 -0.82921 -0.32819
-1.83630 -0.82817 -0.32835
-1.83785 -0.82713 -0.32852
-1.83670 -0.82488 -0.32820
-1.83551 -0.82261 -0.32809
-1.83526 -0.82076 -0.32793
-1.83681 -0.81972 -0.32810
-1.83745 -0.81827 -0.32810
-1.83719 -0.81643 -0.32795
-1.83599 -0.81417 -0.32784
-1.83667 -0.81274 -0.32763
-1.83727 -0.81128 -0.32784
-1.83610 -0.80904 -0.32753
-1.83496 -0.80681 -0.32700
-1.83469 -0.80497 -0.32684
-1.83536 -0.80354 -0.32663
-1.83505 -0.80169 -0.32669
-1.83571 -0.80026 -0.32648
-1.83634 -0.79882 -0.32648
-1.83606 -0.79698 -0.32633
-1.83669 -0.79553 -0.32633
-1.83459 -0.79291 -0.32585
-1.83340 -0.79069 -0.32553
-1.83762 -0.79079 -0.32639
-1.83461 -0.78779 -0.32575
-1.82344 -0.78129 -0.32366
-1.85309 -0.79227 -0.32882
-1.77349 -1.02199 -0.33428
-1.84442 -1.06092 -0.34772
-1.84525 -1.05947 -0.34772
-1.84780 -1.05899 -0.34805
-1.84860 -1.05752 -0.34828
-1.84858 -1.05557 -0.34812
-1.84684 -1.05264 -0.34764
-1.84598 -1.05023 -0.34710
-1.84681 -1.04877 -0.34710
-1.84764 -1.04731 -0.34710
-1.84760 -1.04537 -0.34695
-1.84671 -1.04294 -0.34663
-1.84667 -1.04100 -0.34647
-1.84752 -1.03956 -0.34625
-1.84834 -1.03810 -0.34625
-1.84744 -1.03568 -0.34594
-1.84739 -1.03374 -0.34578
-1.84734 -1.03180 -0.34562
-1.84816 -1.03034 -0.34563
-1.84807 -1.02838 -0.34569
-1.84629 -1.02549 -0.34521
-1.84624 -1.02355 -0.34505
-1.84618 -1.02162 -0.34490
-1.84612 -1.01968 -0.34474
-1.84433 -1.01680 -0.34426
-1.84427 -1.01487 -0.34410
-1.85196 -1.01719 -0.34562
-1.84752 -0.99025 -0.34270
-1.84308 -0.98601 -0.34174
-1.84298 -0.98409 -0.34158
-1.84465 -0.98313 -0.34152
-1.84543 -0.98167 -0.34153
-1.84532 -0.97976 -0.34137
-1.84522 -0.97785 -0.34121
-1.84512 -0.97594 -0.34105
-1.84501 -0.97403 -0.34090
-1.84403 -0.97166 -0.34058
-1.84476 -0.97019 -0.34080
-1.84464 -0.96828 -0.34064
-1.84453 -0.96638 -0.34049
-1.84351 -0.96400 -0.34039
-1.84426 -0.96255 -0.34039
-1.84152 -0.95927 -0.33975
-1.84227 -0.95783 -0.33975
-1.84565 -0.95774 -0.34024
-1.84169 -0.92650 -0.33718
-1.84065 -0.92417 -0.33686
-1.84135 -0.92271 -0.33708
-1.84122 -0.92083 -0.33670
-1.84103 -0.91893 -0.33676
-1.84087 -0.91704 -0.33660
-1.84158 -0.91560 -0.33661
-1.84142 -0.91371 -0.33645
-1.84210 -0.91225 -0.33667
-1.84193 -0.91036 -0.33651
-1.84088 -0.90804 -0.33619
-1.83893 -0.90529 -0.33571
-1.83964 -0.90384 -0.33571
-1.84039 -0.90241 -0.33550
-1.84021 -0.90053 -0.33534
-1.83914 -0.89822 -0.33502
-1.83810 -0.89593 -0.33449
-1.84058 -0.89535 -0.33482
-1.83554 -0.86454 -0.33239
-1.83533 -0.86268 -0.33224
-1.83604 -0.86125 -0.33203
-1.83761 -0.86023 -0.33219
-1.83831 -0.85880 -0.33198
-1.83809 -0.85694 -0.33182
-1.83873 -0.85548 -0.33204
-1.83940 -0.85403 -0.33204
-1.83921 -0.85219 -0.33167
-1.83808 -0.84991 -0.33136
-1.83606 -0.84723 -0.33087
-1.83583 -0.84537 -0.33072
-1.83649 -0.84393 -0.33072
-1.83716 -0.84249 -0.33072
-1.83692 -0.84063 -0.33057
-1.83578 -0.83837 -0.33025
-1.83461 -0.83610 -0.33014
-1.83437 -0.83425 -0.32998
-1.83955 -0.83486 -0.33058
-1.83841 -0.83260 -0.33026
-1.83633 -0.82992 -0.32999
-1.83608 -0.82807 -0.32983
-1.83493 -0.82581 -0.32951
-1.83555 -0.82436 -0.32973
-1.83623 -0.82293 -0.32952
-1.83417 -0.82027 -0.32904
-1.83388 -0.81841 -0.32909
-1.83452 -0.81697 -0.32910
-1.83336 -0.81473 -0.32878
-1.83310 -0.81288 -0.32862
-1.83464 -0.81184 -0.32878
-1.83437 -0.81000 -0.32863
-1.83411 -0.80816 -0.32847
-1.83297 -0.80593 -0.32794
-1.83360 -0.80449 -0.32794
-1.83245 -0.80227 -0.32741
-1.83399 -0.80123 -0.32758
-1.83371 -0.79939 -0.32742
-1.83347 -0.79757 -0.32705
-1.83497 -0.79650 -0.32743
-1.83559 -0.79506 -0.32743
-1.83259 -0.79205 -0.32679
-1.83231 -0.79022 -0.32663
-1.83837 -0.79112 -0.32760
-1.83083 -0.78616 -0.32615
-1.81965 -0.77967 -0.32405
-1.87014 -0.79956 -0.33316
-1.78352 -1.02964 -0.33831
-1.83221 -1.05583 -0.34740
-1.84419 -1.06079 -0.34928
-1.84671 -1.06030 -0.34983
-1.84498 -1.05737 -0.34935
-1.84581 -1.05592 -0.34936
-1.84667 -1.05448 -0.34914
-1.84576 -1.05203 -0.34904
-1.84490 -1.04961 -0.34850
-1.84487 -1.04767 -0.34834
-1.84570 -1.04621 -0.34834
-1.84566 -1.04427 -0.34818
-1.84566 -1.04235 -0.34780
-1.84562 -1.04041 -0.34764
-1.84558 -1.03847 -0.34749
-1.84468 -1.03604 -0.34717
-1.84466 -1.03412 -0.34679
-1.84548 -1.03267 -0.34679
-1.84626 -1.03119 -0.34702
-1.84449 -1.02829 -0.34653
-1.84443 -1.02636 -0.34637
-1.84524 -1.02490 -0.34638
-1.84515 -1.02295 -0.34644
-1.84423 -1.02054 -0.34612
-1.84417 -1.01861 -0.34596
-1.84494 -1.01713 -0.34619
-1.85007 -1.01806 -0.34700
-1.84733 -0.99015 -0.34402
-1.84115 -0.98497 -0.34273
-1.84015 -0.98258 -0.34263
-1.84182 -0.98161 -0.34258
-1.84430 -0.98108 -0.34312
-1.84420 -0.97916 -0.34296
-1.84148 -0.97587 -0.34232
-1.84221 -0.97440 -0.34254
-1.84298 -0.97296 -0.34254
-1.84374 -0.97151 -0.34255
-1.84450 -0.97006 -0.34255
-1.84264 -0.96723 -0.34207
-1.84253 -0.96533 -0.34191
-1.84328 -0.96388 -0.34192
-1.84232 -0.96154 -0.34138
-1.84129 -0.95916 -0.34127
-1.84117 -0.95726 -0.34112
-1.84455 -0.95717 -0.34160
-1.83706 -0.92417 -0.33788
-1.83779 -0.92273 -0.33788
-1.83939 -0.92173 -0.33805
-1.83920 -0.91982 -0.33811
-1.83904 -0.91794 -0.33795
-1.83976 -0.91649 -0.33795
-1.83960 -0.91461 -0.33779
-1.83943 -0.91272 -0.33764
-1.83929 -0.91086 -0.33726
-1.83998 -0.90939 -0.33748
-1.83984 -0.90753 -0.33711
-1.83878 -0.90521 -0.33679
-1.83949 -0.90377 -0.33679
-1.84019 -0.90232 -0.33679
-1.83913 -0.90001 -0.33647
-1.83721 -0.89728 -0.33577
-1.83702 -0.89540 -0.33562
-1.84213 -0.89610 -0.33665
-1.83378 -0.86547 -0.33351
-1.83446 -0.86403 -0.33351
-1.83603 -0.86301 -0.33368
-1.83671 -0.86157 -0.33368
-1.83649 -0.85971 -0.33352
-1.83716 -0.85826 -0.33353
-1.83787 -0.85683 -0.33332
-1.83765 -0.85497 -0.33316
-1.83653 -0.85270 -0.33284
-1.83720 -0.85125 -0.33284
-1.83700 -0.84941 -0.33247
-1.83587 -0.84714 -0.33215
-1.83564 -0.84529 -0.33199
-1.83630 -0.84384 -0.33199
-1.83697 -0.84240 -0.33200
-1.83763 -0.84096 -0.33200
-1.83649 -0.83869 -0.33168
-1.83442 -0.83601 -0.33141
-1.83418 -0.83416 -0.33125
-1.84023 -0.83516 -0.33223
-1.83536 -0.82427 -0.33100
-1.83600 -0.82283 -0.33100
-1.83578 -0.82100 -0.33063
-1.83372 -0.81834 -0.33015
-1.83256 -0.81610 -0.32983
-1.83230 -0.81426 -0.32967
-1.83294 -0.81281 -0.32967
-1.83358 -0.81137 -0.32967
-1.83422 -0.80993 -0.32968
-1.83576 -0.80888 -0.32984
-1.83458 -0.80665 -0.32952
-1.83341 -0.80441 -0.32920
-1.83223 -0.80218 -0.32888
-1.83286 -0.80073 -0.32888
-1.83346 -0.79928 -0.32910
-1.83231 -0.79706 -0.32857
-1.83384 -0.79601 -0.32873
-1.83353 -0.79417 -0.32878
-1.83053 -0.79116 -0.32814
-1.83202 -0.79009 -0.32851
-1.83899 -0.79138 -0.32965
-1.80697 -0.77592 -0.32381
-1.80891 -1.04430 -0.34493
-1.83623 -1.05814 -0.34999
-1.84134 -1.05915 -0.35080
-1.84386 -1.05866 -0.35136
-1.84469 -1.05721 -0.35136
-1.84467 -1.05526 -0.35120
-1.84378 -1.05283 -0.35088
-1.84461 -1.05137 -0.35088
-1.84373 -1.04894 -0.35056
-1.84369 -1.04700 -0.35040
-1.84452 -1.04555 -0.35041
-1.84534 -1.04409 -0.35041
-1.84356 -1.04116 -0.35015
-1.84180 -1.03825 -0.34966
-1.84348 -1.03728 -0.34983
-1.84515 -1.03631 -0.35000
-1.84425 -1.03389 -0.34967
-1.84248 -1.03099 -0.34919
-1.84243 -1.02905 -0.34903
-1.84324 -1.02760 -0.34903
-1.84233 -1.02519 -0.34871
-1.84227 -1.02325 -0.34855
-1.84135 -1.02084 -0.34823
-1.84219 -1.01941 -0.34801
-1.84299 -1.01795 -0.34801
-1.84466 -1.01698 -0.34818
-1.84434 -0.98854 -0.34617
-1.83902 -0.98384 -0.34503
-1.83806 -0.98146 -0.34471
-1.84057 -0.98095 -0.34504
-1.84221 -0.97996 -0.34521
-1.84123 -0.97759 -0.34488
-1.84116 -0.97570 -0.34451
-1.84193 -0.97425 -0.34451
-1.84007 -0.97142 -0.34403
-1.83996 -0.96952 -0.34387
-1.84072 -0.96807 -0.34387
-1.83973 -0.96571 -0.34355
-1.83962 -0.96380 -0.34339
-1.84037 -0.96236 -0.34339
-1.84025 -0.96045 -0.34323
-1.83926 -0.95810 -0.34291
-1.83998 -0.95664 -0.34313
-1.84423 -0.95701 -0.34379
-1.84231 -0.93044 -0.34155
-1.83863 -0.92677 -0.34074
-1.83674 -0.92401 -0.34004
-1.83659 -0.92213 -0.33988
-1.83728 -0.92067 -0.34010
-1.83892 -0.91968 -0.34005
-1.83875 -0.91780 -0.33989
-1.83774 -0.91549 -0.33935
-1.83757 -0.91360 -0.33919
-1.83829 -0.91216 -0.33920
-1.83815 -0.91029 -0.33882
-1.83795 -0.90839 -0.33888
-1.83775 -0.90650 -0.33893
-1.83846 -0.90505 -0.33894
-1.83828 -0.90317 -0.33878
-1.83722 -0.90086 -0.33846
-1.83615 -0.89855 -0.33813
-1.83683 -0.89709 -0.33835
-1.83756 -0.89566 -0.33814
-1.83912 -0.89464 -0.33852
-1.83260 -0.86492 -0.33526
-1.83150 -0.86264 -0.33494
-1.83393 -0.86202 -0.33548
-1.83553 -0.86101 -0.33543
-1.83617 -0.85956 -0.33565
-1.83595 -0.85770 -0.33549
-1.83573 -0.85584 -0.33533
-1.83551 -0.85398 -0.33517
-1.83528 -0.85212 -0.33501
-1.83595 -0.85068 -0.33502
-1.83569 -0.84881 -0.33507
-1.83546 -0.84695 -0.33491
-1.83523 -0.84510 -0.33475
-1.83320 -0.84242 -0.33426
-1.83300 -0.84058 -0.33389
-1.83362 -0.83913 -0.33411
-1.83249 -0.83687 -0.33378
-1.83314 -0.83543 -0.33379
-1.83649 -0.83521 -0.33428
-1.83152 -0.80530 -0.33135
-1.82945 -0.80267 -0.33086
-1.83005 -0.80122 -0.33108
-1.83064 -0.79976 -0.33129
-1.83133 -0.79835 -0.33087
-1.83196 -0.79691 -0.33088
-1.83259 -0.79547 -0.33088
-1.82778 -0.79168 -0.32990
-1.82931 -0.79063 -0.33007
-1.83805 -0.79269 -0.33175
-1.82511 -0.78541 -0.32910
-1.74119 -1.00704 -0.33412
-1.82229 -1.05203 -0.34953
-1.83933 -1.05993 -0.35287
-1.84020 -1.05850 -0.35265
-1.84100 -1.05703 -0.35287
-1.84272 -1.05608 -0.35282
-1.84352 -1.05461 -0.35305
-1.84349 -1.05266 -0.35289
-1.84175 -1.04974 -0.35240
-1.84258 -1.04829 -0.35240
-1.84684 -1.04879 -0.35306
-1.84684 -1.04686 -0.35268
-1.84251 -1.04249 -0.35170
-1.84075 -1.03958 -0.35121
-1.84157 -1.03813 -0.35121
-1.84153 -1.03619 -0.35105
-1.84149 -1.03425 -0.35089
-1.84230 -1.03280 -0.35090
-1.84225 -1.03086 -0.35074
-1.84134 -1.02845 -0.35041
-1.84043 -1.02603 -0.35009
-1.84124 -1.02458 -0.35009
-1.84115 -1.02263 -0.35015
-1.84199 -1.02120 -0.34994
-1.84104 -1.01877 -0.34983
-1.84097 -1.01684 -0.34967
-1.84091 -1.01491 -0.34951
-1.83825 -1.01156 -0.34886
-1.83646 -1.00868 -0.34837
-1.83725 -1.00723 -0.34838
-1.83542 -1.00434 -0.34811
-1.83275 -1.00100 -0.34746
-1.83094 -0.99814 -0.34697
-1.83259 -0.99717 -0.34714
-1.83771 -0.99808 -0.34796
-1.83639 -0.98614 -0.34640
-1.83632 -0.98425 -0.34602
-1.83796 -0.98327 -0.34618
-1.83960 -0.98229 -0.34635
-1.84125 -0.98131 -0.34652
-1.84027 -0.97893 -0.34619
-1.83930 -0.97656 -0.34587
-1.83916 -0.97464 -0.34593
-1.83993 -0.97319 -0.34593
-1.83894 -0.97083 -0.34561
-1.83796 -0.96846 -0.34529
-1.83872 -0.96702 -0.34529
-1.83941 -0.96554 -0.34573
-1.83758 -0.96274 -0.34502
-1.83834 -0.96129 -0.34503
-1.83909 -0.95985 -0.34503
-1.84072 -0.95886 -0.34520
-1.84497 -0.95923 -0.34586
-1.83680 -0.92766 -0.34209
-1.83397 -0.92442 -0.34165
-1.83381 -0.92254 -0.34149
-1.83630 -0.92198 -0.34182
-1.83787 -0.92096 -0.34220
-1.83771 -0.91908 -0.34204
-1.83579 -0.91631 -0.34156
-1.83565 -0.91445 -0.34118
-1.83634 -0.91299 -0.34140
-1.83529 -0.91067 -0.34107
-1.83512 -0.90879 -0.34091
-1.83583 -0.90735 -0.34092
-1.83566 -0.90547 -0.34076
-1.83551 -0.90360 -0.34038
-1.83442 -0.90128 -0.34027
-1.83427 -0.89942 -0.33990
-1.83498 -0.89798 -0.33990
-1.83834 -0.89783 -0.34040
-1.83250 -0.86663 -0.33755
-1.83050 -0.86392 -0.33706
-1.83207 -0.86291 -0.33723
-1.83275 -0.86147 -0.33723
-1.83253 -0.85961 -0.33707
-1.83234 -0.85776 -0.33670
-1.83212 -0.85591 -0.33654
-1.83279 -0.85447 -0.33654
-1.83346 -0.85303 -0.33654
-1.83234 -0.85076 -0.33622
-1.83301 -0.84932 -0.33622
-1.83367 -0.84788 -0.33623
-1.83348 -0.84604 -0.33585
-1.83232 -0.84376 -0.33574
-1.83298 -0.84232 -0.33575
-1.83274 -0.84046 -0.33558
-1.83161 -0.83820 -0.33526
-1.83226 -0.83676 -0.33526
-1.83651 -0.83696 -0.33592
-1.83358 -0.80965 -0.33389
-1.82793 -0.80544 -0.33253
-1.82675 -0.80320 -0.33221
-1.82738 -0.80177 -0.33221
-1.82985 -0.80113 -0.33233
-1.82958 -0.79930 -0.33217
-1.82927 -0.79745 -0.33222
-1.82993 -0.79603 -0.33202
-1.82965 -0.79419 -0.33186
-1.82843 -0.79196 -0.33174
-1.83086 -0.79130 -0.33207
-1.83420 -0.79103 -0.33257
-1.75881 -1.01908 -0.34028
-1.82453 -1.05524 -0.35261
-1.83817 -1.06119 -0.35509
-1.84075 -1.06075 -0.35520
-1.83984 -1.05829 -0.35510
-1.84071 -1.05686 -0.35488
-1.84154 -1.05541 -0.35488
-1.84152 -1.05346 -0.35472
-1.84063 -1.05103 -0.35440
-1.83975 -1.04860 -0.35407
-1.84229 -1.04813 -0.35441
-1.83708 -1.04133 -0.35309
-1.83961 -1.04085 -0.35343
-1.83954 -1.03889 -0.35349
-1.83864 -1.03647 -0.35316
-1.84032 -1.03551 -0.35333
-1.84285 -1.03502 -0.35366
-1.84019 -1.03162 -0.35323
-1.83842 -1.02872 -0.35274
-1.83924 -1.02727 -0.35274
-1.84004 -1.02582 -0.35274
-1.83741 -1.02245 -0.35209
-1.83824 -1.02102 -0.35187
-1.83988 -1.02003 -0.35226
-1.83809 -1.01714 -0.35177
-1.83806 -1.01523 -0.35139
-1.83800 -1.01331 -0.35123
-1.83876 -1.01184 -0.35145
-1.83790 -1.00947 -0.35068
-1.83606 -1.00658 -0.35041
-1.83513 -1.00419 -0.35008
-1.83419 -1.00179 -0.34976
-1.83411 -0.99987 -0.34960
-1.83490 -0.99843 -0.34960
-1.83572 -0.99699 -0.34939
-1.83647 -0.99553 -0.34961
-1.83552 -0.99314 -0.34928
-1.83283 -0.98982 -0.34863
-1.83618 -0.98976 -0.34934
-1.83696 -0.98831 -0.34935
-1.83513 -0.98546 -0.34886
-1.83590 -0.98402 -0.34886
-1.83668 -0.98258 -0.34886
-1.83741 -0.98112 -0.34909
-1.83644 -0.97875 -0.34876
-1.83721 -0.97730 -0.34876
-1.83711 -0.97540 -0.34860
-1.83700 -0.97349 -0.34844
-1.83605 -0.97114 -0.34790
-1.83678 -0.96968 -0.34812
-1.83670 -0.96780 -0.34774
-1.83662 -0.96591 -0.34736
-1.83734 -0.96445 -0.34758
-1.83723 -0.96255 -0.34742
-1.83539 -0.95975 -0.34671
-1.83440 -0.95740 -0.34638
-1.83602 -0.95641 -0.34655
-1.84206 -0.95772 -0.34733
-1.83304 -0.92757 -0.34418
-1.83113 -0.92479 -0.34369
-1.83185 -0.92336 -0.34369
-1.83434 -0.92280 -0.34403
-1.83598 -0.92182 -0.34398
-1.83494 -0.91949 -0.34365
-1.83478 -0.91761 -0.34349
-1.83373 -0.91529 -0.34316
-1.83353 -0.91339 -0.34322
-1.83428 -0.91197 -0.34301
-1.83497 -0.91051 -0.34323
-1.83394 -0.90821 -0.34268
-1.83377 -0.90633 -0.34252
-1.83357 -0.90444 -0.34258
-1.83339 -0.90256 -0.34241
-1.83321 -0.90068 -0.34225
-1.83126 -0.89794 -0.34176
-1.83108 -0.89607 -0.34160
-1.83267 -0.89506 -0.34177
-1.84398 -0.89879 -0.34397
-1.83149 -0.86791 -0.33967
-1.82864 -0.86480 -0.33880
-1.82932 -0.86337 -0.33881
-1.83089 -0.86235 -0.33898
-1.83157 -0.86091 -0.33898
-1.83224 -0.85947 -0.33898
-1.83291 -0.85803 -0.33899
-1.83269 -0.85617 -0.33882
-1.83158 -0.85390 -0.33850
-1.83135 -0.85205 -0.33834
-1.83202 -0.85061 -0.33834
-1.83176 -0.84874 -0.33839
-1.82971 -0.84604 -0.33811
-1.83037 -0.84460 -0.33811
-1.83103 -0.84317 -0.33812
-1.82990 -0.84090 -0.33779
-1.82877 -0.83864 -0.33746
-1.82943 -0.83720 -0.33747
-1.83367 -0.83741 -0.33813
-1.82574 -0.80447 -0.33472
-1.82547 -0.80264 -0.33456
-1.82610 -0.80120 -0.33456
-1.82763 -0.80016 -0.33473
-1.82735 -0.79833 -0.33457
-1.82795 -0.79688 -0.33478
-1.82677 -0.79465 -0.33445
-1.82468 -0.79204 -0.33396
-1.82804 -0.79179 -0.33425
-1.83500 -0.79309 -0.33541
-1.80209 -0.77718 -0.32950
-1.77392 -1.02783 -0.34498
-1.82762 -1.05703 -0.35549
-1.83785 -1.06101 -0.35732
-1.83869 -1.05956 -0.35732
-1.83952 -1.05811 -0.35733
-1.83950 -1.05616 -0.35717
-1.84033 -1.05471 -0.35717
-1.83945 -1.05228 -0.35684
-1.83857 -1.04985 -0.35651
-1.84111 -1.04938 -0.35685
-1.85225 -1.05379 -0.35862
-1.84134 -1.02084 -0.35436
-1.83783 -1.01700 -0.35353
-1.83691 -1.01459 -0.35320
-1.83771 -1.01314 -0.35321
-1.83761 -1.01120 -0.35327
-1.83584 -1.00834 -0.35255
-1.83574 -1.00640 -0.35261
-1.83653 -1.00496 -0.35261
-1.83559 -1.00256 -0.35229
-1.83465 -1.00017 -0.35196
-1.83461 -0.99827 -0.35158
-1.83453 -0.99635 -0.35141
-1.83531 -0.99490 -0.35142
-1.83526 -0.99300 -0.35104
-1.83517 -0.99108 -0.35087
-1.83422 -0.98870 -0.35054
-1.83673 -0.98819 -0.35088
-1.83751 -0.98674 -0.35089
-1.83568 -0.98390 -0.35039
-1.83645 -0.98246 -0.35039
-1.83722 -0.98101 -0.35040
-1.83709 -0.97909 -0.35046
-1.83524 -0.97626 -0.34996
-1.83427 -0.97389 -0.34963
-1.83503 -0.97245 -0.34964
-1.83663 -0.97145 -0.35002
-1.83652 -0.96955 -0.34986
-1.83554 -0.96718 -0.34953
-1.83542 -0.96528 -0.34937
-1.83531 -0.96338 -0.34921
-1.83519 -0.96148 -0.34904
-1.83420 -0.95913 -0.34872
-1.83495 -0.95769 -0.34872
-1.83570 -0.95624 -0.34872
-1.83907 -0.95617 -0.34923
-1.82844 -0.94882 -0.34707
-1.83542 -0.92877 -0.34640
-1.83175 -0.92511 -0.34558
-1.83160 -0.92322 -0.34542
-1.83317 -0.92221 -0.34580
-1.83389 -0.92077 -0.34580
-1.83373 -0.91889 -0.34564
-1.83354 -0.91699 -0.34569
-1.83253 -0.91469 -0.34515
-1.83324 -0.91325 -0.34515
-1.83396 -0.91180 -0.34516
-1.83379 -0.90993 -0.34499
-1.83362 -0.90805 -0.34483
-1.83260 -0.90575 -0.34429
-1.83151 -0.90342 -0.34418
-1.83133 -0.90155 -0.34401
-1.83115 -0.89967 -0.34385
-1.83278 -0.89868 -0.34381
-1.83614 -0.89854 -0.34431
-1.83295 -0.86860 -0.34213
-1.82918 -0.86506 -0.34131
-1.82896 -0.86320 -0.34114
-1.83053 -0.86218 -0.34131
-1.83121 -0.86074 -0.34132
-1.83013 -0.85848 -0.34078
-1.82988 -0.85661 -0.34082
-1.83058 -0.85519 -0.34062
-1.83036 -0.85333 -0.34045
-1.83014 -0.85148 -0.34029
-1.83080 -0.85004 -0.34030
-1.82971 -0.84779 -0.33975
-1.82859 -0.84552 -0.33943
-1.83015 -0.84450 -0.33960
-1.83081 -0.84306 -0.33960
-1.82968 -0.84080 -0.33927
-1.82765 -0.83813 -0.33878
-1.82830 -0.83669 -0.33878
-1.83255 -0.83689 -0.33945
-1.82665 -0.80659 -0.33672
-1.82458 -0.80396 -0.33623
-1.82521 -0.80252 -0.33623
-1.82584 -0.80109 -0.33624
-1.82556 -0.79926 -0.33607
-1.82619 -0.79782 -0.33608
-1.82772 -0.79678 -0.33625
-1.82564 -0.79416 -0.33575
-1.82355 -0.79155 -0.33526
-1.82688 -0.79129 -0.33576
-1.83474 -0.79298 -0.33709
-1.75148 -1.01668 -0.34295
-1.81967 -1.05434 -0.35615
-1.83413 -1.06079 -0.35904
-1.83667 -1.06033 -0.35938
-1.83665 -1.05838 -0.35922
-1.83663 -1.05644 -0.35906
-1.83743 -1.05497 -0.35928
-1.83655 -1.05254 -0.35895
-1.83652 -1.05061 -0.35879
-1.83821 -1.04965 -0.35896
-1.84503 -1.05161 -0.36013
-1.83590 -1.01972 -0.35573
-1.83326 -1.01635 -0.35507
-1.83319 -1.01443 -0.35490
-1.83399 -1.01298 -0.35491
-1.83565 -1.01201 -0.35508
-1.83642 -1.01055 -0.35530
-1.83638 -1.00864 -0.35492
-1.83628 -1.00670 -0.35497
-1.83445 -1.00381 -0.35470
-1.83351 -1.00142 -0.35437
-1.83343 -0.99950 -0.35420
-1.83335 -0.99758 -0.35404
-1.83414 -0.99614 -0.35404
-1.83319 -0.99375 -0.35371
-1.83227 -0.99138 -0.35316
-1.83218 -0.98947 -0.35300
-1.83556 -0.98942 -0.35351
-1.83808 -0.98891 -0.35384
-1.83712 -0.98653 -0.35351
-1.83442 -0.98323 -0.35285
-1.83432 -0.98132 -0.35268
-1.83335 -0.97895 -0.35235
-1.83325 -0.97705 -0.35219
-1.83227 -0.97468 -0.35186
-1.83130 -0.97231 -0.35153
-1.83293 -0.97134 -0.35170
-1.83369 -0.96990 -0.35170
-1.83271 -0.96753 -0.35137
-1.82998 -0.96426 -0.35071
-1.82899 -0.96190 -0.35038
-1.83149 -0.96138 -0.35072
-1.83308 -0.96038 -0.35110
-1.83209 -0.95803 -0.35077
-1.83197 -0.95613 -0.35061
-1.83094 -0.95376 -0.35050
-1.83081 -0.95187 -0.35033
-1.83068 -0.94998 -0.35017
-1.83146 -0.94856 -0.34996
-1.83042 -0.94619 -0.34984
-1.82941 -0.94385 -0.34951
-1.83018 -0.94243 -0.34930
-1.83092 -0.94099 -0.34930
-1.82990 -0.93865 -0.34897
-1.82888 -0.93632 -0.34864
-1.83141 -0.93579 -0.34876
-1.83126 -0.93391 -0.34860
-1.82760 -0.93023 -0.34776
-1.82909 -0.92737 -0.34756
-1.82803 -0.92503 -0.34744
-1.82791 -0.92317 -0.34706
-1.82951 -0.92217 -0.34723
-1.83111 -0.92118 -0.34741
-1.83180 -0.91972 -0.34762
-1.83076 -0.91740 -0.34729
-1.83060 -0.91552 -0.34713
-1.83044 -0.91364 -0.34697
-1.83027 -0.91177 -0.34680
-1.83095 -0.91031 -0.34702
-1.83167 -0.90887 -0.34702
-1.83058 -0.90654 -0.34691
-1.83044 -0.90468 -0.34653
-1.82938 -0.90237 -0.34620
-1.82920 -0.90050 -0.34603
-1.82902 -0.89863 -0.34587
-1.83065 -0.89764 -0.34583
-1.83663 -0.89878 -0.34705
-1.83106 -0.86947 -0.34409
-1.82814 -0.86632 -0.34364
-1.82882 -0.86489 -0.34364
-1.82861 -0.86303 -0.34348
-1.82750 -0.86075 -0.34315
-1.82817 -0.85932 -0.34315
-1.82796 -0.85746 -0.34299
-1.82863 -0.85603 -0.34299
-1.82930 -0.85459 -0.34299
-1.82908 -0.85273 -0.34283
-1.82796 -0.85047 -0.34250
-1.82862 -0.84903 -0.34250
-1.82843 -0.84719 -0.34213
-1.82730 -0.84493 -0.34180
-1.82797 -0.84349 -0.34180
-1.82866 -0.84207 -0.34159
-1.82663 -0.83940 -0.34109
-1.82550 -0.83714 -0.34076
-1.82795 -0.83653 -0.34110
-1.83667 -0.83878 -0.34261
-1.82292 -0.80666 -0.33873
-1.82265 -0.80482 -0.33857
-1.82329 -0.80339 -0.33857
-1.82305 -0.80157 -0.33820
-1.82277 -0.79974 -0.33804
-1.82340 -0.79831 -0.33804
-1.82584 -0.79766 -0.33838
-1.82465 -0.79544 -0.33805
-1.82257 -0.79282 -0.33755
-1.82319 -0.79139 -0.33755
-1.82921 -0.79229 -0.33877
-1.81719 -0.78539 -0.33622
-1.71792 -0.99901 -0.33911
-1.81334 -1.05258 -0.35778
-1.83122 -1.06104 -0.36115
-1.83462 -1.06107 -0.36166
-1.83546 -1.05962 -0.36166
-1.83540 -1.05767 -0.36172
-1.83538 -1.05573 -0.36156
-1.83536 -1.05379 -0.36139
-1.83537 -1.05187 -0.36101
-1.83616 -1.05040 -0.36123
-1.83699 -1.04895 -0.36123
-1.84295 -1.05043 -0.36225
-1.83461 -1.01900 -0.35843
-1.83373 -1.01662 -0.35788
-1.83280 -1.01421 -0.35754
-1.83274 -1.01229 -0.35738
-1.83353 -1.01084 -0.35738
-1.83433 -1.00940 -0.35739
-1.83426 -1.00748 -0.35722
-1.83333 -1.00508 -0.35689
-1.83412 -1.00363 -0.35689
-1.83404 -1.00171 -0.35673
-1.83310 -0.99932 -0.35640
-1.83386 -0.99786 -0.35662
-1.83464 -0.99641 -0.35662
-1.83456 -0.99449 -0.35646
-1.83274 -0.99164 -0.35596
-1.83176 -0.98924 -0.35584
-1.83257 -0.98781 -0.35563
-1.83592 -0.98775 -0.35635
-1.82916 -0.97118 -0.35380
-1.82821 -0.96884 -0.35325
-1.82720 -0.96646 -0.35314
-1.82708 -0.96457 -0.35297
-1.82962 -0.96407 -0.35310
-1.83125 -0.96309 -0.35327
-1.83375 -0.96257 -0.35361
-1.83272 -0.96019 -0.35349
-1.83086 -0.95738 -0.35299
-1.82986 -0.95503 -0.35266
-1.82973 -0.95314 -0.35249
-1.82961 -0.95124 -0.35233
-1.82857 -0.94888 -0.35221
-1.82844 -0.94699 -0.35205
-1.82918 -0.94555 -0.35205
-1.82905 -0.94366 -0.35189
-1.82891 -0.94178 -0.35172
-1.82877 -0.93989 -0.35156
-1.82948 -0.93844 -0.35178
-1.82849 -0.93612 -0.35123
-1.82835 -0.93423 -0.35106
-1.82905 -0.93278 -0.35128
-1.82718 -0.93002 -0.35057
-1.82791 -0.92858 -0.35057
-1.83127 -0.92848 -0.35108
-1.83027 -0.92617 -0.35053
-1.82836 -0.92340 -0.35003
