-1.66381 -0.71755 -0.32009
-1.66437 -0.71624 -0.32009
-1.66403 -0.71454 -0.31992
-1.66094 -0.71167 -0.31942
-1.66241 -0.71075 -0.31960
-1.66293 -0.70943 -0.31979
-1.66171 -0.70736 -0.31925
-1.66226 -0.70605 -0.31926
-1.66282 -0.70474 -0.31926
-1.66153 -0.70266 -0.31910
-1.66026 -0.70058 -0.31876
-1.66081 -0.69928 -0.31876
-1.66136 -0.69797 -0.31877
-1.66103 -0.69630 -0.31840
-1.65976 -0.69423 -0.31806
-1.66028 -0.69291 -0.31825
-1.65809 -0.69047 -0.31773
-1.65776 -0.68880 -0.31737
-1.65830 -0.68749 -0.31738
-1.66612 -0.68920 -0.31877
-1.65322 -0.65812 -0.31465
-1.65187 -0.65608 -0.31449
-1.65422 -0.65551 -0.31484
-1.65656 -0.65493 -0.31519
-1.65619 -0.65328 -0.31484
-1.65484 -0.65124 -0.31468
-1.65444 -0.64958 -0.31451
-1.65406 -0.64793 -0.31415
-1.65365 -0.64627 -0.31398
-1.65416 -0.64497 -0.31398
-1.65466 -0.64367 -0.31399
-1.65333 -0.64165 -0.31364
-1.65292 -0.64000 -0.31347
-1.65345 -0.63871 -0.31329
-1.65395 -0.63741 -0.31329
-1.65350 -0.63574 -0.31330
-1.65400 -0.63444 -0.31331
-1.65450 -0.63314 -0.31331
-1.64948 -0.62973 -0.31227
-1.64997 -0.62843 -0.31227
-1.65415 -0.62853 -0.31297
-1.64150 -0.60605 -0.30971
-1.64194 -0.60474 -0.30990
-1.64427 -0.60413 -0.31025
-1.64570 -0.60318 -0.31024
-1.64432 -0.60120 -0.30990
-1.64572 -0.60024 -0.31007
-1.65175 -0.60096 -0.31112
-1.64852 -0.59832 -0.31043
-1.64714 -0.59635 -0.31008
-1.64671 -0.59472 -0.30973
-1.64625 -0.59309 -0.30956
-1.64579 -0.59146 -0.30939
-1.64348 -0.58916 -0.30887
-1.64301 -0.58753 -0.30870
-1.64348 -0.58623 -0.30870
-1.64397 -0.58495 -0.30852
-1.64347 -0.58331 -0.30853
-1.64207 -0.58136 -0.30819
-1.64253 -0.58006 -0.30819
-1.64392 -0.57909 -0.30837
-1.64344 -0.57747 -0.30819
-1.64387 -0.57616 -0.30838
-1.64525 -0.57519 -0.30856
-1.64477 -0.57357 -0.30839
-1.64243 -0.57130 -0.30787
-1.64102 -0.56936 -0.30752
-1.64147 -0.56806 -0.30753
-1.64285 -0.56709 -0.30770
-1.64233 -0.56546 -0.30771
-1.64092 -0.56352 -0.30737
-1.64139 -0.56224 -0.30719
-1.63997 -0.56031 -0.30684
-1.63948 -0.55870 -0.30667
-1.63992 -0.55740 -0.30668
-1.64036 -0.55611 -0.30668
-1.63893 -0.55418 -0.30633
-1.63750 -0.55226 -0.30599
-1.63887 -0.55128 -0.30617
-1.64027 -0.55031 -0.30616
-1.64160 -0.54932 -0.30652
-1.64110 -0.54771 -0.30635
-1.64060 -0.54611 -0.30618
-1.64103 -0.54481 -0.30618
-1.63959 -0.54290 -0.30584
-1.63814 -0.54099 -0.30549
-1.63763 -0.53939 -0.30532
-1.63712 -0.53779 -0.30515
-1.63755 -0.53649 -0.30515
-1.63890 -0.53551 -0.30533
-1.63742 -0.53360 -0.30516
-1.63597 -0.53169 -0.30482
-1.63545 -0.53010 -0.30465
-1.63306 -0.52790 -0.30412
-1.63347 -0.52661 -0.30413
-1.63483 -0.52562 -0.30431
-1.63711 -0.52494 -0.30466
-1.63468 -0.52273 -0.30432
-1.63137 -0.52026 -0.30344
-1.63693 -0.50925 -0.30364
-1.63263 -0.50650 -0.30277
-1.63209 -0.50492 -0.30260
-1.63343 -0.50393 -0.30278
-1.63476 -0.50293 -0.30295
-1.63613 -0.50194 -0.30295
-1.63558 -0.50036 -0.30278
-1.63504 -0.49878 -0.30261
-1.63446 -0.49719 -0.30262
-1.63485 -0.49590 -0.30262
-1.63335 -0.49404 -0.30228
-1.63183 -0.49217 -0.30211
-1.63127 -0.49060 -0.30194
-1.63354 -0.48988 -0.30229
-1.63393 -0.48859 -0.30229
-1.63239 -0.48673 -0.30212
-1.63089 -0.48488 -0.30178
-1.63127 -0.48360 -0.30178
-1.62976 -0.48175 -0.30144
-1.62920 -0.48019 -0.30126
-1.63150 -0.47946 -0.30144
-1.63187 -0.47818 -0.30144
-1.63130 -0.47661 -0.30127
-1.62884 -0.47450 -0.30075
-1.62922 -0.47321 -0.30075
-1.63148 -0.47248 -0.30110
-1.63094 -0.47092 -0.30075
-1.63036 -0.46936 -0.30058
-1.62881 -0.46753 -0.30041
-1.62823 -0.46597 -0.30024
-1.62859 -0.46469 -0.30025
-1.62899 -0.46341 -0.30007
-1.62935 -0.46212 -0.30007
-1.62969 -0.46083 -0.30026
-1.62910 -0.45928 -0.30008
-1.62757 -0.45746 -0.29974
-1.69596 -0.47235 -0.31233
-1.70677 -0.47391 -0.31425
-1.70334 -0.47151 -0.31356
-1.70087 -0.46938 -0.31303
-1.70409 -0.46883 -0.31356
-1.70446 -0.46748 -0.31356
-1.70289 -0.46561 -0.31339
-1.70326 -0.46426 -0.31339
-1.70271 -0.46267 -0.31304
-1.70022 -0.46056 -0.31251
-1.69868 -0.45870 -0.31216
-1.70098 -0.45788 -0.31233
-1.70321 -0.45704 -0.31286
-1.70166 -0.45519 -0.31251
-1.70015 -0.45335 -0.31198
-1.70051 -0.45200 -0.31198
-1.69991 -0.45041 -0.31180
-1.69646 -0.44806 -0.31111
-1.69586 -0.44648 -0.31093
-1.69720 -0.44539 -0.31092
-1.69850 -0.44431 -0.31110
-1.69694 -0.44247 -0.31075
-1.69539 -0.44063 -0.31040
-1.69573 -0.43930 -0.31040
-1.69417 -0.43747 -0.31005
-1.69067 -0.43514 -0.30954
-1.69292 -0.43429 -0.30989
-1.69711 -0.43394 -0.31040
-1.70222 -0.43382 -0.31128
-1.70062 -0.43198 -0.31111
-1.71143 -0.43329 -0.31322
-1.65267 -0.72977 -0.32146
-1.66226 -0.73244 -0.32321
-1.66280 -0.73111 -0.32341
-1.66337 -0.72981 -0.32341
-1.66395 -0.72850 -0.32342
-1.66365 -0.72681 -0.32305
-1.66332 -0.72510 -0.32288
-1.66298 -0.72340 -0.32271
-1.66174 -0.72131 -0.32236
-1.66231 -0.72000 -0.32236
-1.66288 -0.71870 -0.32237
-1.66344 -0.71739 -0.32237
-1.66223 -0.71531 -0.32183
-1.66188 -0.71362 -0.32166
-1.66154 -0.71192 -0.32149
-1.66119 -0.71023 -0.32132
-1.65994 -0.70815 -0.32097
-1.65962 -0.70647 -0.32061
-1.66105 -0.70554 -0.32098
-1.66163 -0.70424 -0.32079
-1.66219 -0.70294 -0.32079
-1.66092 -0.70086 -0.32045
-1.66147 -0.69956 -0.32045
-1.66108 -0.69785 -0.32047
-1.65982 -0.69579 -0.32012
-1.65945 -0.69410 -0.31995
-1.66000 -0.69280 -0.31995
-1.66054 -0.69149 -0.31996
-1.65742 -0.68866 -0.31945
-1.65799 -0.68737 -0.31926
-1.65342 -0.65670 -0.31652
-1.65211 -0.65467 -0.31617
-1.65351 -0.65372 -0.31654
-1.65402 -0.65242 -0.31654
-1.65362 -0.65076 -0.31637
-1.65413 -0.64946 -0.31637
-1.65464 -0.64816 -0.31638
-1.65423 -0.64650 -0.31620
-1.65471 -0.64518 -0.31639
-1.65429 -0.64352 -0.31622
-1.65296 -0.64151 -0.31587
-1.65255 -0.63985 -0.31570
-1.65213 -0.63820 -0.31553
-1.65263 -0.63690 -0.31553
-1.65313 -0.63560 -0.31554
-1.65271 -0.63394 -0.31536
-1.65137 -0.63194 -0.31502
-1.65003 -0.62994 -0.31467
-1.64960 -0.62829 -0.31450
-1.65013 -0.62701 -0.31431
-1.65614 -0.62780 -0.31537
-1.65422 -0.60186 -0.31350
-1.64448 -0.59685 -0.31175
-1.64310 -0.59488 -0.31141
-1.64452 -0.59393 -0.31140
-1.64681 -0.59329 -0.31194
-1.64824 -0.59233 -0.31193
-1.64774 -0.59069 -0.31194
-1.64635 -0.58873 -0.31160
-1.64496 -0.58677 -0.31125
-1.64450 -0.58514 -0.31108
-1.64403 -0.58351 -0.31090
-1.64356 -0.58188 -0.31073
-1.64405 -0.58060 -0.31055
-1.64358 -0.57897 -0.31038
-1.64311 -0.57735 -0.31021
-1.64263 -0.57573 -0.31004
-1.64315 -0.57445 -0.30967
-1.64168 -0.57249 -0.30969
-1.64027 -0.57054 -0.30934
-1.64072 -0.56925 -0.30935
-1.64303 -0.56860 -0.30970
-1.64630 -0.56828 -0.31005
-1.64578 -0.56665 -0.31006
-1.64061 -0.56342 -0.30919
-1.63919 -0.56149 -0.30884
-1.63870 -0.55988 -0.30867
-1.63914 -0.55858 -0.30867
-1.63772 -0.55665 -0.30833
-1.63813 -0.55535 -0.30851
-1.63950 -0.55437 -0.30869
-1.63900 -0.55277 -0.30852
-1.63850 -0.55116 -0.30834
-1.63893 -0.54987 -0.30835
-1.63940 -0.54858 -0.30817
-1.63796 -0.54666 -0.30782
-1.63743 -0.54505 -0.30783
-1.63698 -0.54347 -0.30729
-1.63738 -0.54217 -0.30748
-1.63781 -0.54088 -0.30748
-1.63636 -0.53897 -0.30713
-1.63398 -0.53675 -0.30661
-1.63443 -0.53548 -0.30643
-1.63579 -0.53449 -0.30661
-1.63528 -0.53290 -0.30644
-1.63289 -0.53069 -0.30592
-1.63240 -0.52911 -0.30556
-1.63281 -0.52782 -0.30557
-1.63323 -0.52653 -0.30557
-1.63364 -0.52524 -0.30557
-1.63403 -0.52394 -0.30576
-1.63725 -0.52355 -0.30629
-1.63673 -0.52196 -0.30611
-1.63432 -0.51978 -0.30559
-1.63379 -0.51819 -0.30542
-1.63605 -0.51748 -0.30595
-1.63364 -0.51531 -0.30543
-1.62935 -0.51254 -0.30455
-1.62784 -0.51065 -0.30439
-1.62921 -0.50967 -0.30439
-1.63240 -0.50926 -0.30509
-1.63472 -0.50856 -0.30527
-1.63414 -0.50697 -0.30528
-1.63360 -0.50539 -0.30510
-1.63403 -0.50411 -0.30493
-1.63252 -0.50223 -0.30476
-1.63106 -0.50038 -0.30423
-1.63145 -0.49909 -0.30423
-1.63185 -0.49780 -0.30424
-1.63224 -0.49652 -0.30424
-1.63263 -0.49523 -0.30424
-1.63302 -0.49394 -0.30425
-1.63246 -0.49237 -0.30407
-1.63100 -0.49052 -0.30355
-1.63135 -0.48923 -0.30373
-1.63174 -0.48794 -0.30373
-1.63215 -0.48666 -0.30356
-1.63062 -0.48480 -0.30339
-1.63005 -0.48324 -0.30321
-1.63043 -0.48195 -0.30322
-1.63081 -0.48066 -0.30322
-1.63022 -0.47909 -0.30323
-1.62965 -0.47752 -0.30305
-1.63100 -0.47652 -0.30305
-1.62851 -0.47440 -0.30271
-1.62888 -0.47312 -0.30271
-1.62925 -0.47183 -0.30272
-1.62962 -0.47055 -0.30272
-1.62810 -0.46871 -0.30237
-1.62847 -0.46743 -0.30237
-1.62884 -0.46615 -0.30238
-1.62826 -0.46459 -0.30220
-1.62863 -0.46331 -0.30221
-1.62899 -0.46202 -0.30221
-1.62935 -0.46074 -0.30221
-1.62785 -0.45892 -0.30169
-1.62723 -0.45736 -0.30169
-1.69567 -0.47227 -0.31399
-1.70082 -0.47226 -0.31469
-1.71068 -0.47354 -0.31644
-1.70726 -0.47115 -0.31574
-1.70478 -0.46902 -0.31522
-1.70705 -0.46819 -0.31557
-1.70647 -0.46659 -0.31539
-1.70399 -0.46446 -0.31487
-1.70337 -0.46285 -0.31488
-1.70373 -0.46151 -0.31488
-1.70413 -0.46017 -0.31469
-1.70253 -0.45830 -0.31471
-1.70194 -0.45670 -0.31454
-1.70325 -0.45561 -0.31471
-1.70266 -0.45401 -0.31454
-1.70016 -0.45191 -0.31401
-1.69953 -0.45031 -0.31402
-1.70087 -0.44923 -0.31401
-1.70218 -0.44814 -0.31419
-1.69967 -0.44605 -0.31366
-1.69812 -0.44421 -0.31331
-1.70037 -0.44336 -0.31366
-1.69977 -0.44177 -0.31349
-1.69729 -0.43970 -0.31278
-1.69573 -0.43787 -0.31243
-1.69795 -0.43701 -0.31296
-1.69928 -0.43593 -0.31295
-1.69673 -0.43385 -0.31261
-1.69615 -0.43227 -0.31225
-1.69744 -0.43118 -0.31243
-1.69969 -0.43032 -0.31278
-1.70767 -0.43091 -0.31418
-1.65362 -0.73174 -0.32351
-1.66140 -0.73362 -0.32493
-1.66288 -0.73271 -0.32511
-1.66258 -0.73102 -0.32474
-1.66222 -0.72930 -0.32476
-1.66280 -0.72799 -0.32476
-1.66337 -0.72669 -0.32477
-1.66394 -0.72538 -0.32477
-1.66270 -0.72328 -0.32442
-1.66146 -0.72119 -0.32407
-1.66203 -0.71988 -0.32408
-1.66166 -0.71817 -0.32409
-1.66132 -0.71647 -0.32392
-1.66098 -0.71478 -0.32375
-1.66063 -0.71308 -0.32358
-1.66026 -0.71137 -0.32359
-1.65994 -0.70969 -0.32323
-1.65960 -0.70800 -0.32306
-1.66012 -0.70668 -0.32325
-1.66158 -0.70576 -0.32343
-1.66126 -0.70408 -0.32306
-1.66000 -0.70201 -0.32272
-1.66055 -0.70071 -0.32272
-1.66022 -0.69903 -0.32236
-1.65987 -0.69734 -0.32218
-1.65860 -0.69527 -0.32183
-1.65823 -0.69359 -0.32166
-1.65784 -0.69189 -0.32168
-1.65747 -0.69021 -0.32150
-1.65711 -0.68853 -0.32133
-1.66132 -0.68875 -0.32185
-1.65385 -0.65988 -0.31911
-1.65162 -0.65748 -0.31858
-1.65214 -0.65619 -0.31859
-1.65268 -0.65490 -0.31840
-1.65317 -0.65358 -0.31859
-1.65368 -0.65229 -0.31860
-1.65422 -0.65100 -0.31841
-1.65382 -0.64933 -0.31824
-1.65249 -0.64732 -0.31789
-1.65117 -0.64530 -0.31754
-1.65168 -0.64400 -0.31754
-1.65313 -0.64307 -0.31754
-1.65180 -0.64106 -0.31719
-1.65138 -0.63940 -0.31701
-1.65280 -0.63846 -0.31719
-1.65422 -0.63751 -0.31737
-1.65289 -0.63550 -0.31702
-1.65243 -0.63384 -0.31704
-1.65201 -0.63219 -0.31686
-1.65159 -0.63053 -0.31669
-1.64932 -0.62818 -0.31616
-1.65439 -0.62862 -0.31724
-1.64928 -0.60006 -0.31446
-1.64328 -0.59641 -0.31323
-1.64189 -0.59445 -0.31288
-1.64421 -0.59382 -0.31324
-1.64653 -0.59319 -0.31359
-1.64607 -0.59156 -0.31342
-1.64373 -0.58925 -0.31308
-1.64419 -0.58795 -0.31308
-1.64280 -0.58599 -0.31273
-1.64138 -0.58403 -0.31256
-1.64369 -0.58339 -0.31292
-1.64418 -0.58210 -0.31274
-1.64275 -0.58014 -0.31257
-1.64231 -0.57853 -0.31222
-1.64274 -0.57722 -0.31240
-1.64226 -0.57560 -0.31223
-1.64179 -0.57398 -0.31206
-1.64224 -0.57268 -0.31206
-1.64083 -0.57074 -0.31171
-1.63945 -0.56881 -0.31118
-1.64083 -0.56784 -0.31136
-1.64593 -0.56815 -0.31224
-1.63452 -0.54982 -0.30909
-1.63309 -0.54790 -0.30874
-1.63352 -0.54662 -0.30874
-1.63395 -0.54533 -0.30875
-1.63438 -0.54404 -0.30875
-1.63294 -0.54213 -0.30840
-1.63240 -0.54052 -0.30841
-1.63750 -0.54077 -0.30929
-1.63699 -0.53917 -0.30912
-1.63274 -0.53635 -0.30824
-1.63313 -0.53505 -0.30842
-1.63449 -0.53407 -0.30860
-1.63494 -0.53278 -0.30843
-1.63439 -0.53118 -0.30843
-1.63481 -0.52989 -0.30844
-1.63523 -0.52860 -0.30844
-1.63380 -0.52672 -0.30791
-1.63328 -0.52513 -0.30774
-1.63463 -0.52414 -0.30792
-1.63504 -0.52285 -0.30792
-1.63451 -0.52126 -0.30774
-1.63492 -0.51997 -0.30775
-1.63442 -0.51839 -0.30739
-1.63292 -0.51650 -0.30723
-1.63242 -0.51492 -0.30687
-1.63283 -0.51363 -0.30688
-1.63320 -0.51234 -0.30706
-1.63267 -0.51075 -0.30688
-1.63213 -0.50917 -0.30671
-1.63347 -0.50818 -0.30689
-1.63387 -0.50689 -0.30689
-1.63330 -0.50530 -0.30690
-1.63369 -0.50401 -0.30690
-1.63409 -0.50272 -0.30690
-1.63166 -0.50056 -0.30638
-1.63112 -0.49899 -0.30621
-1.63151 -0.49770 -0.30621
-1.63190 -0.49641 -0.30621
-1.63041 -0.49456 -0.30586
-1.62985 -0.49298 -0.30569
-1.63210 -0.49226 -0.30622
-1.63154 -0.49068 -0.30605
-1.63004 -0.48883 -0.30570
-1.62948 -0.48726 -0.30552
-1.62987 -0.48598 -0.30553
-1.63119 -0.48497 -0.30571
-1.63066 -0.48341 -0.30535
-1.63013 -0.48186 -0.30500
-1.62862 -0.48002 -0.30465
-1.62994 -0.47901 -0.30483
-1.63032 -0.47772 -0.30484
-1.62975 -0.47616 -0.30466
-1.62826 -0.47433 -0.30413
-1.62861 -0.47304 -0.30432
-1.62898 -0.47175 -0.30432
-1.62651 -0.46965 -0.30379
-1.62597 -0.46810 -0.30344
-1.62728 -0.46709 -0.30362
-1.63046 -0.46661 -0.30433
-1.62893 -0.46478 -0.30398
-1.62740 -0.46296 -0.30363
-1.62774 -0.46166 -0.30381
-1.62810 -0.46038 -0.30381
-1.62657 -0.45856 -0.30346
-1.62314 -0.45621 -0.30276
-1.69532 -0.47218 -0.31602
-1.69949 -0.47189 -0.31673
-1.70650 -0.47239 -0.31798
-1.70023 -0.46921 -0.31674
-1.70250 -0.46839 -0.31709
-1.70287 -0.46705 -0.31709
-1.70229 -0.46544 -0.31692
-1.70265 -0.46410 -0.31692
-1.70397 -0.46301 -0.31709
-1.70528 -0.46193 -0.31727
-1.70663 -0.46085 -0.31726
-1.70509 -0.45899 -0.31691
-1.70450 -0.45739 -0.31673
-1.70391 -0.45579 -0.31656
-1.70427 -0.45444 -0.31656
-1.70368 -0.45285 -0.31638
-1.70308 -0.45125 -0.31621
-1.70153 -0.44940 -0.31585
-1.70186 -0.44805 -0.31604
-1.70126 -0.44646 -0.31586
-1.70066 -0.44487 -0.31568
-1.70101 -0.44353 -0.31568
-1.70136 -0.44219 -0.31568
-1.70072 -0.44059 -0.31569
-1.69919 -0.43876 -0.31516
-1.69951 -0.43741 -0.31534
-1.69985 -0.43607 -0.31534
-1.69733 -0.43400 -0.31481
-1.69860 -0.43290 -0.31517
-1.70088 -0.43205 -0.31534
-1.70408 -0.43143 -0.31587
-1.71110 -0.43177 -0.31711
-1.64614 -0.72843 -0.32381
-1.65935 -0.73271 -0.32610
-1.66353 -0.73300 -0.32681
-1.66230 -0.73089 -0.32646
-1.66197 -0.72919 -0.32629
-1.66255 -0.72788 -0.32629
-1.66225 -0.72620 -0.32593
-1.66011 -0.72371 -0.32540
-1.66068 -0.72240 -0.32540
-1.66121 -0.72108 -0.32560
-1.66178 -0.71977 -0.32560
-1.66054 -0.71769 -0.32525
-1.66113 -0.71639 -0.32506
-1.66079 -0.71470 -0.32489
-1.65954 -0.71261 -0.32454
-1.65917 -0.71091 -0.32455
-1.66244 -0.71076 -0.32509
-1.66300 -0.70945 -0.32509
-1.66084 -0.70699 -0.32456
-1.65958 -0.70491 -0.32421
-1.66010 -0.70359 -0.32440
-1.65884 -0.70152 -0.32405
-1.65758 -0.69945 -0.32370
-1.65816 -0.69816 -0.32352
-1.66049 -0.69761 -0.32406
-1.66104 -0.69630 -0.32407
-1.65977 -0.69423 -0.32371
-1.65941 -0.69255 -0.32354
-1.65995 -0.69124 -0.32355
-1.65777 -0.68880 -0.32302
-1.65649 -0.68675 -0.32267
-1.65235 -0.65777 -0.31988
-1.65104 -0.65575 -0.31953
-1.64969 -0.65371 -0.31937
-1.65020 -0.65241 -0.31937
-1.65071 -0.65111 -0.31937
-1.65214 -0.65018 -0.31955
-1.65265 -0.64888 -0.31955
-1.65133 -0.64686 -0.31920
-1.65092 -0.64520 -0.31903
-1.65143 -0.64390 -0.31903
-1.65010 -0.64189 -0.31868
-1.64968 -0.64024 -0.31851
-1.65019 -0.63894 -0.31851
-1.65161 -0.63799 -0.31869
-1.65030 -0.63600 -0.31816
-1.64988 -0.63435 -0.31798
-1.65130 -0.63340 -0.31816
-1.65179 -0.63210 -0.31816
-1.65048 -0.63011 -0.31763
-1.64911 -0.62810 -0.31746
-1.65420 -0.62855 -0.31835
-1.64441 -0.59829 -0.31505
-1.64210 -0.59599 -0.31452
-1.64350 -0.59503 -0.31470
-1.64397 -0.59373 -0.31471
-1.64443 -0.59243 -0.31471
-1.64397 -0.59080 -0.31454
-1.64447 -0.58952 -0.31435
-1.64493 -0.58822 -0.31436
-1.64261 -0.58593 -0.31383
-1.64308 -0.58463 -0.31383
-1.64354 -0.58334 -0.31383
-1.64495 -0.58238 -0.31383
-1.64356 -0.58042 -0.31348
-1.64213 -0.57846 -0.31331
-1.64165 -0.57684 -0.31314
-1.64211 -0.57554 -0.31314
-1.64256 -0.57425 -0.31315
-1.64112 -0.57229 -0.31298
-1.64157 -0.57100 -0.31298
-1.64016 -0.56906 -0.31263
-1.64154 -0.56808 -0.31281
-1.64847 -0.56903 -0.31424
-1.63626 -0.53750 -0.31021
-1.63298 -0.53500 -0.30933
-1.63617 -0.53462 -0.31004
-1.63846 -0.53393 -0.31040
-1.63795 -0.53234 -0.31023
-1.63740 -0.53073 -0.31023
-1.63501 -0.52853 -0.30970
-1.63262 -0.52633 -0.30917
-1.63303 -0.52505 -0.30918
-1.63344 -0.52376 -0.30918
-1.63479 -0.52277 -0.30936
-1.63423 -0.52117 -0.30937
-1.63371 -0.51958 -0.30919
-1.63321 -0.51801 -0.30884
-1.63362 -0.51672 -0.30884
-1.63308 -0.51513 -0.30867
-1.63349 -0.51384 -0.30867
-1.63389 -0.51255 -0.30867
-1.63336 -0.51097 -0.30850
-1.63188 -0.50909 -0.30815
-1.63137 -0.50752 -0.30779
-1.63271 -0.50653 -0.30797
-1.63593 -0.50611 -0.30851
-1.62978 -0.50280 -0.30709
-1.62732 -0.50064 -0.30674
-1.63057 -0.50023 -0.30710
-1.63284 -0.49952 -0.30745
-1.63135 -0.49765 -0.30710
-1.63080 -0.49608 -0.30693
-1.63119 -0.49479 -0.30693
-1.63155 -0.49350 -0.30712
-1.63009 -0.49165 -0.30658
-1.62856 -0.48979 -0.30641
-1.62894 -0.48850 -0.30641
-1.62839 -0.48694 -0.30624
-1.62874 -0.48564 -0.30642
-1.62912 -0.48436 -0.30643
-1.62950 -0.48307 -0.30643
-1.62796 -0.48122 -0.30625
-1.62645 -0.47938 -0.30590
-1.62494 -0.47754 -0.30555
-1.62535 -0.47626 -0.30538
-1.62761 -0.47553 -0.30573
-1.62988 -0.47480 -0.30609
-1.62836 -0.47297 -0.30574
-1.62684 -0.47113 -0.30539
-1.62721 -0.46985 -0.30539
-1.62664 -0.46829 -0.30522
-1.62700 -0.46701 -0.30522
-1.62832 -0.46600 -0.30540
-1.62777 -0.46445 -0.30505
-1.62719 -0.46290 -0.30487
-1.62850 -0.46188 -0.30505
-1.63076 -0.46113 -0.30541
-1.62635 -0.45850 -0.30471
-1.62387 -0.45642 -0.30418
-1.69947 -0.47477 -0.31820
-1.69320 -0.47158 -0.31696
-1.70021 -0.47209 -0.31821
-1.70343 -0.47154 -0.31874
-1.70092 -0.46940 -0.31840
-1.69939 -0.46753 -0.31804
-1.69976 -0.46620 -0.31804
-1.70108 -0.46511 -0.31822
-1.70145 -0.46377 -0.31822
-1.69991 -0.46191 -0.31787
-1.69929 -0.46031 -0.31788
-1.70064 -0.45923 -0.31787
-1.70290 -0.45840 -0.31822
-1.70231 -0.45680 -0.31805
-1.70077 -0.45495 -0.31769
-1.69923 -0.45310 -0.31734
-1.69958 -0.45176 -0.31734
-1.69902 -0.45017 -0.31698
-1.69937 -0.44883 -0.31698
-1.69973 -0.44749 -0.31698
-1.70008 -0.44615 -0.31698
-1.69951 -0.44457 -0.31661
-1.69891 -0.44298 -0.31644
-1.69926 -0.44164 -0.31644
-1.70056 -0.44055 -0.31662
-1.69995 -0.43896 -0.31644
-1.69836 -0.43712 -0.31627
-1.69778 -0.43554 -0.31591
-1.69717 -0.43396 -0.31573
-1.69748 -0.43261 -0.31591
-1.69878 -0.43151 -0.31609
-1.70293 -0.43114 -0.31680
-1.70804 -0.43100 -0.31769
-1.70838 -0.42965 -0.31769
-1.71537 -0.42997 -0.31912
-1.64439 -0.72920 -0.32533
-1.65756 -0.73348 -0.32782
-1.65997 -0.73299 -0.32799
-1.66051 -0.73167 -0.32819
-1.66108 -0.73036 -0.32819
-1.66256 -0.72945 -0.32837
-1.66223 -0.72775 -0.32820
-1.66100 -0.72565 -0.32784
-1.65976 -0.72356 -0.32749
-1.66033 -0.72225 -0.32749
-1.66093 -0.72096 -0.32731
-1.66150 -0.71965 -0.32731
-1.66025 -0.71756 -0.32696
-1.65901 -0.71548 -0.32660
-1.65867 -0.71378 -0.32643
-1.66013 -0.71287 -0.32661
-1.66069 -0.71156 -0.32661
-1.65947 -0.70949 -0.32607
-1.65912 -0.70780 -0.32590
-1.65971 -0.70651 -0.32571
-1.66027 -0.70520 -0.32571
-1.65988 -0.70350 -0.32573
-1.65681 -0.70066 -0.32502
-1.65917 -0.70012 -0.32538
-1.65791 -0.69805 -0.32503
-1.65664 -0.69599 -0.32468
-1.65625 -0.69429 -0.32469
-1.65861 -0.69375 -0.32505
-1.65825 -0.69206 -0.32487
-1.65603 -0.68961 -0.32453
-1.65385 -0.68717 -0.32400
-1.66166 -0.68889 -0.32543
-1.65338 -0.65969 -0.32191
-1.65115 -0.65730 -0.32138
-1.64981 -0.65526 -0.32122
-1.64944 -0.65361 -0.32086
-1.64995 -0.65231 -0.32086
-1.65043 -0.65100 -0.32105
-1.65094 -0.64971 -0.32105
-1.64962 -0.64769 -0.32070
-1.65105 -0.64675 -0.32088
-1.65064 -0.64509 -0.32071
-1.65020 -0.64342 -0.32072
-1.64978 -0.64177 -0.32054
-1.65032 -0.64048 -0.32036
-1.64899 -0.63847 -0.32001
-1.64854 -0.63681 -0.32002
-1.64907 -0.63553 -0.31983
-1.65049 -0.63458 -0.32001
-1.65003 -0.63292 -0.32003
-1.64869 -0.63092 -0.31967
-1.64830 -0.62928 -0.31931
-1.64788 -0.62763 -0.31914
-1.64929 -0.62669 -0.31932
-1.64502 -0.59852 -0.31707
-1.64275 -0.59622 -0.31635
-1.64226 -0.59458 -0.31636
-1.64368 -0.59363 -0.31636
-1.64412 -0.59232 -0.31654
-1.64366 -0.59069 -0.31637
-1.64230 -0.58874 -0.31583
-1.64277 -0.58744 -0.31584
-1.64323 -0.58615 -0.31584
-1.64276 -0.58452 -0.31566
-1.64230 -0.58290 -0.31549
-1.64183 -0.58127 -0.31531
-1.64229 -0.57998 -0.31532
-1.64185 -0.57836 -0.31496
-1.64320 -0.57738 -0.31532
-1.64272 -0.57576 -0.31515
-1.64225 -0.57414 -0.31497
-1.64177 -0.57252 -0.31480
-1.64129 -0.57090 -0.31462
-1.63988 -0.56896 -0.31427
-1.64033 -0.56767 -0.31427
-1.64447 -0.56764 -0.31517
-1.63463 -0.53839 -0.31166
-1.63224 -0.53618 -0.31113
-1.63267 -0.53490 -0.31113
-1.63402 -0.53391 -0.31131
-1.63541 -0.53294 -0.31131
-1.63583 -0.53165 -0.31132
-1.63531 -0.53005 -0.31114
-1.63479 -0.52846 -0.31097
-1.63521 -0.52717 -0.31097
-1.63372 -0.52527 -0.31080
-1.63413 -0.52398 -0.31080
-1.63361 -0.52239 -0.31062
-1.63399 -0.52109 -0.31081
-1.63161 -0.51892 -0.31010
-1.63109 -0.51733 -0.30992
-1.63240 -0.51633 -0.31028
-1.63374 -0.51534 -0.31046
-1.63415 -0.51405 -0.31047
-1.63362 -0.51247 -0.31029
-1.63305 -0.51087 -0.31030
-1.63251 -0.50929 -0.31012
-1.63388 -0.50831 -0.31012
-1.63992 -0.50877 -0.31120
-1.63562 -0.50602 -0.31031
-1.62850 -0.50241 -0.30888
-1.62892 -0.50113 -0.30871
-1.63026 -0.50013 -0.30889
-1.62783 -0.49798 -0.30836
-1.62540 -0.49584 -0.30783
-1.62579 -0.49456 -0.30783
-1.62903 -0.49414 -0.30819
-1.62936 -0.49283 -0.30855
-1.62598 -0.49041 -0.30784
-1.62545 -0.48885 -0.30748
-1.62769 -0.48813 -0.30802
-1.62808 -0.48684 -0.30802
-1.62752 -0.48528 -0.30785
-1.62601 -0.48343 -0.30750
-1.62356 -0.48131 -0.30696
-1.62394 -0.48003 -0.30697
-1.62901 -0.48013 -0.30804
-1.62942 -0.47885 -0.30786
-1.62787 -0.47701 -0.30769
-1.62730 -0.47544 -0.30751
-1.62673 -0.47389 -0.30734
-1.62616 -0.47233 -0.30716
-1.62748 -0.47132 -0.30734
-1.62879 -0.47031 -0.30753
-1.62822 -0.46875 -0.30735
-1.62764 -0.46719 -0.30718
-1.62801 -0.46591 -0.30718
-1.62743 -0.46435 -0.30700
-1.62688 -0.46281 -0.30665
-1.62535 -0.46099 -0.30630
-1.62950 -0.46078 -0.30701
-1.62797 -0.45896 -0.30666
-1.69921 -0.47470 -0.31968
-1.69389 -0.47178 -0.31862
-1.69995 -0.47202 -0.31969
-1.69938 -0.47042 -0.31952
-1.69975 -0.46908 -0.31952
-1.69822 -0.46721 -0.31916
-1.69574 -0.46509 -0.31863
-1.69516 -0.46349 -0.31845
-1.69739 -0.46266 -0.31899
-1.69775 -0.46133 -0.31899
-1.69808 -0.45998 -0.31918
-1.69655 -0.45813 -0.31882
-1.69694 -0.45680 -0.31864
-1.69727 -0.45545 -0.31882
-1.70048 -0.45487 -0.31936
-1.69989 -0.45328 -0.31918
-1.69739 -0.45118 -0.31864
-1.69584 -0.44933 -0.31829
-1.69715 -0.44825 -0.31846
-1.69655 -0.44666 -0.31829
-1.69598 -0.44508 -0.31792
-1.69538 -0.44349 -0.31775
-1.69570 -0.44214 -0.31793
-1.69509 -0.44056 -0.31775
-1.69452 -0.43898 -0.31739
-1.69487 -0.43765 -0.31739
-1.69426 -0.43606 -0.31721
-1.69460 -0.43473 -0.31721
-1.69590 -0.43363 -0.31739
-1.69624 -0.43229 -0.31739
-1.69944 -0.43168 -0.31793
-1.70646 -0.43203 -0.31918
-1.71065 -0.43166 -0.31971
-1.70523 -0.42886 -0.31882
-1.72080 -0.43133 -0.32186
-1.65136 -0.73229 -0.32808
-1.65914 -0.73418 -0.32951
-1.66151 -0.73367 -0.32987
-1.66029 -0.73157 -0.32952
-1.65996 -0.72987 -0.32934
-1.66050 -0.72855 -0.32954
-1.66111 -0.72725 -0.32935
-1.65988 -0.72516 -0.32900
-1.65861 -0.72305 -0.32883
-1.65918 -0.72175 -0.32883
-1.65977 -0.72046 -0.32865
-1.65944 -0.71876 -0.32847
-1.65910 -0.71706 -0.32830
-1.65876 -0.71537 -0.32812
-1.65932 -0.71406 -0.32812
-1.65901 -0.71238 -0.32776
-1.65866 -0.71069 -0.32759
-1.65832 -0.70900 -0.32741
-1.65884 -0.70768 -0.32760
-1.65940 -0.70638 -0.32760
-1.65995 -0.70507 -0.32761
-1.65960 -0.70338 -0.32743
-1.65653 -0.70054 -0.32672
-1.65708 -0.69924 -0.32672
-1.65672 -0.69755 -0.32655
-1.65636 -0.69587 -0.32637
-1.65600 -0.69419 -0.32620
-1.65833 -0.69363 -0.32675
-1.65796 -0.69195 -0.32657
-1.65578 -0.68951 -0.32604
-1.65450 -0.68745 -0.32568
-1.65133 -0.65887 -0.32287
-1.65002 -0.65685 -0.32251
-1.65053 -0.65555 -0.32251
-1.65196 -0.65461 -0.32270
-1.65156 -0.65295 -0.32252
-1.65113 -0.65128 -0.32253
-1.65072 -0.64962 -0.32236
-1.65123 -0.64832 -0.32236
-1.65086 -0.64667 -0.32200
-1.64950 -0.64465 -0.32183
-1.64998 -0.64334 -0.32202
-1.65051 -0.64205 -0.32183
-1.65007 -0.64038 -0.32185
-1.64874 -0.63838 -0.32149
-1.64832 -0.63672 -0.32132
-1.64974 -0.63578 -0.32150
-1.64932 -0.63413 -0.32132
-1.64985 -0.63284 -0.32114
-1.64759 -0.63049 -0.32061
-1.64716 -0.62884 -0.32043
-1.64674 -0.62720 -0.32026
-1.65088 -0.62729 -0.32116
-1.64107 -0.59708 -0.31782
-1.64062 -0.59545 -0.31765
-1.64293 -0.59482 -0.31801
-1.64525 -0.59420 -0.31837
-1.64387 -0.59223 -0.31801
-1.64156 -0.58993 -0.31748
-1.64110 -0.58831 -0.31730
-1.64249 -0.58734 -0.31749
-1.64295 -0.58605 -0.31749
-1.64344 -0.58476 -0.31731
-1.64297 -0.58313 -0.31713
-1.64065 -0.58085 -0.31660
-1.64018 -0.57923 -0.31642
-1.64064 -0.57794 -0.31643
-1.64205 -0.57698 -0.31643
-1.64250 -0.57568 -0.31643
-1.64203 -0.57406 -0.31625
-1.64155 -0.57244 -0.31608
-1.64107 -0.57083 -0.31590
-1.64059 -0.56921 -0.31572
-1.64104 -0.56791 -0.31573
-1.64800 -0.56886 -0.31698
-1.63438 -0.53831 -0.31311
-1.63293 -0.53641 -0.31275
-1.63429 -0.53543 -0.31293
-1.63564 -0.53444 -0.31311
-1.63610 -0.53316 -0.31294
-1.63461 -0.53125 -0.31276
-1.63503 -0.52996 -0.31277
-1.63545 -0.52867 -0.31277
-1.63493 -0.52708 -0.31259
-1.63347 -0.52519 -0.31224
-1.63295 -0.52360 -0.31206
-1.63336 -0.52231 -0.31207
-1.63374 -0.52101 -0.31225
-1.63415 -0.51972 -0.31225
-1.63271 -0.51785 -0.31172
-1.63121 -0.51596 -0.31154
-1.63162 -0.51467 -0.31155
-1.63296 -0.51368 -0.31173
-1.63337 -0.51239 -0.31173
-1.63189 -0.51051 -0.31138
-1.63229 -0.50922 -0.31138
-1.63363 -0.50823 -0.31156
-1.63779 -0.50810 -0.31228
-1.62223 -0.48510 -0.30802
-1.62450 -0.48438 -0.30838
-1.62771 -0.48394 -0.30892
-1.62338 -0.48125 -0.30803
-1.61995 -0.47885 -0.30750
-1.62693 -0.47952 -0.30875
-1.63203 -0.47962 -0.30965
-1.62485 -0.47612 -0.30822
-1.62617 -0.47511 -0.30840
-1.62652 -0.47382 -0.30858
-1.62594 -0.47226 -0.30841
-1.62817 -0.47152 -0.30895
-1.62851 -0.47023 -0.30913
-1.62800 -0.46869 -0.30860
-1.62648 -0.46686 -0.30824
-1.62685 -0.46558 -0.30824
-1.62627 -0.46402 -0.30807
-1.62474 -0.46220 -0.30771
-1.62510 -0.46092 -0.30772
-1.63114 -0.46124 -0.30879
-1.69895 -0.47463 -0.32117
-1.69648 -0.47250 -0.32063
-1.69780 -0.47142 -0.32082
-1.69817 -0.47008 -0.32082
-1.69759 -0.46848 -0.32064
-1.69793 -0.46713 -0.32083
-1.69738 -0.46554 -0.32046
-1.69771 -0.46419 -0.32065
-1.69808 -0.46285 -0.32065
-1.69749 -0.46126 -0.32047
-1.69786 -0.45992 -0.32047
-1.69629 -0.45805 -0.32030
-1.69475 -0.45621 -0.31994
-1.69511 -0.45487 -0.31994
-1.69737 -0.45404 -0.32030
-1.69582 -0.45219 -0.31994
-1.69428 -0.45035 -0.31958
-1.69460 -0.44900 -0.31977
-1.69594 -0.44793 -0.31976
-1.69534 -0.44634 -0.31958
-1.69474 -0.44475 -0.31940
-1.69509 -0.44341 -0.31940
-1.69449 -0.44183 -0.31922
-1.69293 -0.44000 -0.31887
-1.69236 -0.43842 -0.31850
-1.69270 -0.43709 -0.31850
-1.69209 -0.43551 -0.31832
-1.69053 -0.43368 -0.31797
-1.69090 -0.43236 -0.31778
-1.69601 -0.43224 -0.31868
-1.70589 -0.43332 -0.32047
-1.70909 -0.43270 -0.32101
-1.70848 -0.43111 -0.32083
-1.70309 -0.42832 -0.31976
-1.64302 -0.72859 -0.32798
-1.65708 -0.73327 -0.33068
-1.65943 -0.73275 -0.33123
-1.66180 -0.73224 -0.33159
-1.66238 -0.73093 -0.33160
-1.66115 -0.72883 -0.33124
-1.66082 -0.72713 -0.33106
-1.66049 -0.72543 -0.33089
-1.66106 -0.72412 -0.33089
-1.65982 -0.72203 -0.33054
-1.65949 -0.72033 -0.33036
-1.65915 -0.71864 -0.33018
-1.65975 -0.71735 -0.32999
-1.65941 -0.71565 -0.32982
-1.65726 -0.71318 -0.32928
-1.65872 -0.71226 -0.32947
-1.65931 -0.71097 -0.32928
-1.65806 -0.70889 -0.32893
-1.65681 -0.70681 -0.32857
-1.65646 -0.70513 -0.32839
-1.65611 -0.70344 -0.32822
-1.65485 -0.70137 -0.32786
-1.65540 -0.70007 -0.32786
-1.65685 -0.69915 -0.32805
-1.65740 -0.69784 -0.32805
-1.65701 -0.69614 -0.32806
-1.65756 -0.69484 -0.32807
-1.65723 -0.69317 -0.32770
-1.65589 -0.69108 -0.32772
-1.65553 -0.68940 -0.32755
-1.65607 -0.68810 -0.32755
-1.66118 -0.68869 -0.32826
-1.64922 -0.65803 -0.32419
-1.64794 -0.65602 -0.32364
-1.64934 -0.65507 -0.32401
-1.65073 -0.65412 -0.32438
-1.65033 -0.65246 -0.32421
-1.65084 -0.65117 -0.32421
-1.65230 -0.65024 -0.32421
-1.65187 -0.64857 -0.32421
-1.64963 -0.64619 -0.32368
-1.64922 -0.64454 -0.32350
-1.64972 -0.64324 -0.32351
-1.65020 -0.64193 -0.32370
-1.64978 -0.64028 -0.32352
-1.64937 -0.63862 -0.32334
-1.64800 -0.63660 -0.32317
-1.64765 -0.63498 -0.32262
-1.64998 -0.63439 -0.32299
-1.65045 -0.63308 -0.32317
-1.64819 -0.63072 -0.32264
-1.64780 -0.62909 -0.32228
-1.65105 -0.62884 -0.32282
-1.64082 -0.59699 -0.31929
-1.64036 -0.59536 -0.31911
-1.64083 -0.59406 -0.31911
-1.64133 -0.59278 -0.31893
-1.64269 -0.59181 -0.31930
-1.64319 -0.59052 -0.31912
-1.64180 -0.58856 -0.31876
-1.64134 -0.58693 -0.31859
-1.64273 -0.58597 -0.31877
-1.64319 -0.58467 -0.31877
-1.64180 -0.58272 -0.31842
-1.63947 -0.58044 -0.31788
-1.63903 -0.57883 -0.31752
-1.64042 -0.57786 -0.31770
-1.64084 -0.57655 -0.31789
-1.64133 -0.57527 -0.31771
-1.64178 -0.57398 -0.31771
-1.64037 -0.57203 -0.31736
-1.63986 -0.57040 -0.31736
-1.64031 -0.56911 -0.31737
-1.64169 -0.56814 -0.31755
-1.64492 -0.56780 -0.31809
-1.63693 -0.53915 -0.31509
-1.63455 -0.53694 -0.31455
-1.63310 -0.53504 -0.31420
-1.63446 -0.53405 -0.31438
-1.63491 -0.53278 -0.31420
-1.63533 -0.53149 -0.31421
-1.63572 -0.53019 -0.31439
-1.63523 -0.52860 -0.31403
-1.63471 -0.52701 -0.31386
-1.63512 -0.52572 -0.31386
-1.63363 -0.52382 -0.31368
-1.63311 -0.52223 -0.31351
-1.63352 -0.52094 -0.31351
-1.63393 -0.51965 -0.31351
-1.63337 -0.51806 -0.31352
-1.63190 -0.51617 -0.31316
-1.63324 -0.51518 -0.31334
-1.63365 -0.51389 -0.31334
-1.63218 -0.51201 -0.31299
-1.63164 -0.51043 -0.31281
-1.63204 -0.50914 -0.31281
-1.63338 -0.50815 -0.31300
-1.63848 -0.50832 -0.31390
-1.62609 -0.47787 -0.31018
-1.62363 -0.47576 -0.30964
-1.62397 -0.47447 -0.30982
-1.62718 -0.47402 -0.31037
-1.62755 -0.47273 -0.31037
-1.62603 -0.47090 -0.31001
-1.62640 -0.46962 -0.31001
-1.62769 -0.46860 -0.31038
-1.62714 -0.46705 -0.31002
-1.62656 -0.46549 -0.30984
-1.62598 -0.46394 -0.30967
-1.62446 -0.46212 -0.30931
-1.62671 -0.46137 -0.30967
-1.63465 -0.46223 -0.31112
-1.70116 -0.47669 -0.32319
-1.69487 -0.47349 -0.32211
-1.69524 -0.47215 -0.32212
-1.69849 -0.47161 -0.32248
-1.69696 -0.46975 -0.32212
-1.69638 -0.46815 -0.32194
-1.69672 -0.46680 -0.32213
-1.69807 -0.46573 -0.32212
-1.69749 -0.46413 -0.32194
-1.69690 -0.46253 -0.32176
-1.69628 -0.46093 -0.32177
-1.69570 -0.45933 -0.32159
-1.69416 -0.45748 -0.32123
-1.69354 -0.45588 -0.32123
-1.69390 -0.45454 -0.32123
-1.69331 -0.45295 -0.32105
-1.69366 -0.45162 -0.32105
-1.69218 -0.44979 -0.32033
-1.69247 -0.44844 -0.32069
-1.69378 -0.44736 -0.32087
-1.69508 -0.44627 -0.32105
-1.69258 -0.44418 -0.32051
-1.69293 -0.44285 -0.32051
-1.69423 -0.44176 -0.32070
-1.69362 -0.44018 -0.32051
-1.69305 -0.43860 -0.32015
-1.69054 -0.43653 -0.31961
-1.68802 -0.43446 -0.31907
-1.68646 -0.43264 -0.31871
-1.68966 -0.43204 -0.31925
-1.70239 -0.43386 -0.32159
-1.70753 -0.43374 -0.32231
-1.70883 -0.43263 -0.32249
-1.71295 -0.43224 -0.32339
-1.71615 -0.43161 -0.32394
-1.72222 -0.43169 -0.32502
-1.64370 -0.72889 -0.32948
-1.65686 -0.73317 -0.33201
-1.66014 -0.73306 -0.33255
-1.66251 -0.73255 -0.33292
-1.65945 -0.72964 -0.33239
-1.66003 -0.72834 -0.33239
-1.66063 -0.72705 -0.33221
-1.65940 -0.72495 -0.33185
-1.65907 -0.72325 -0.33167
-1.65873 -0.72155 -0.33149
-1.65840 -0.71986 -0.33132
-1.65809 -0.71818 -0.33095
-1.65865 -0.71687 -0.33095
-1.65922 -0.71557 -0.33096
-1.65887 -0.71387 -0.33078
-1.65763 -0.71179 -0.33042
-1.65728 -0.71010 -0.33025
-1.65694 -0.70841 -0.33007
-1.65659 -0.70672 -0.32989
-1.65624 -0.70503 -0.32972
-1.65676 -0.70371 -0.32991
-1.65640 -0.70203 -0.32973
-1.65696 -0.70072 -0.32974
-1.65751 -0.69942 -0.32974
-1.65624 -0.69735 -0.32938
-1.65588 -0.69567 -0.32920
-1.65549 -0.69397 -0.32921
-1.65513 -0.69229 -0.32904
-1.65385 -0.69023 -0.32868
-1.65349 -0.68855 -0.32850
-1.66220 -0.69065 -0.33013
-1.64991 -0.65831 -0.32567
-1.64860 -0.65628 -0.32531
-1.65006 -0.65536 -0.32531
-1.65146 -0.65441 -0.32568
-1.65106 -0.65275 -0.32550
-1.64974 -0.65073 -0.32515
-1.65025 -0.64943 -0.32515
-1.65076 -0.64813 -0.32515
-1.64849 -0.64575 -0.32480
-1.64716 -0.64373 -0.32444
-1.64859 -0.64280 -0.32463
-1.64909 -0.64150 -0.32463
-1.64776 -0.63949 -0.32427
-1.64734 -0.63784 -0.32410
-1.64601 -0.63583 -0.32374
-1.64746 -0.63490 -0.32374
-1.64887 -0.63396 -0.32392
-1.64937 -0.63266 -0.32392
-1.64803 -0.63066 -0.32356
-1.64761 -0.62901 -0.32339
-1.64810 -0.62772 -0.32339
-1.64105 -0.59854 -0.32075
-1.63875 -0.59623 -0.32021
-1.64017 -0.59529 -0.32021
-1.64154 -0.59432 -0.32058
-1.64200 -0.59302 -0.32058
-1.64155 -0.59139 -0.32040
-1.64297 -0.59044 -0.32040
-1.64251 -0.58881 -0.32023
-1.64112 -0.58685 -0.31987
-1.64161 -0.58557 -0.31969
-1.64204 -0.58426 -0.31988
-1.64250 -0.58297 -0.31988
-1.64299 -0.58168 -0.31970
-1.64252 -0.58006 -0.31952
-1.64112 -0.57811 -0.31916
-1.64065 -0.57649 -0.31899
-1.64021 -0.57488 -0.31863
-1.64066 -0.57358 -0.31863
-1.64015 -0.57195 -0.31863
-1.63874 -0.57001 -0.31828
-1.63733 -0.56808 -0.31792
-1.64150 -0.56807 -0.31864
-1.63722 -0.54068 -0.31654
-1.63204 -0.53754 -0.31545
-1.63249 -0.53626 -0.31528
-1.63478 -0.53559 -0.31564
-1.63520 -0.53430 -0.31565
-1.63559 -0.53300 -0.31583
-1.63414 -0.53110 -0.31547
-1.63362 -0.52951 -0.31529
-1.63311 -0.52792 -0.31512
-1.63446 -0.52693 -0.31530
-1.63394 -0.52534 -0.31512
-1.63244 -0.52344 -0.31494
-1.63192 -0.52185 -0.31477
-1.63324 -0.52085 -0.31513
-1.63368 -0.51957 -0.31495
-1.63221 -0.51769 -0.31460
-1.63168 -0.51610 -0.31442
-1.63302 -0.51511 -0.31460
-1.63152 -0.51322 -0.31442
-1.63099 -0.51164 -0.31424
-1.63048 -0.51007 -0.31389
-1.63182 -0.50908 -0.31407
-1.63222 -0.50779 -0.31407
-1.62587 -0.47781 -0.31143
-1.62338 -0.47569 -0.31106
-1.62372 -0.47440 -0.31124
-1.62693 -0.47394 -0.31179
-1.62639 -0.47239 -0.31143
-1.62581 -0.47084 -0.31126
-1.62622 -0.46956 -0.31108
-1.62659 -0.46828 -0.31109
-1.62506 -0.46645 -0.31073
-1.62354 -0.46463 -0.31037
-1.62391 -0.46335 -0.31037
-1.62616 -0.46260 -0.31074
-1.63220 -0.46293 -0.31182
-1.69998 -0.47636 -0.32430
-1.69656 -0.47396 -0.32359
-1.69789 -0.47289 -0.32377
-1.70012 -0.47207 -0.32432
-1.69961 -0.47048 -0.32377
-1.69998 -0.46914 -0.32377
-1.70028 -0.46778 -0.32414
-1.70065 -0.46644 -0.32414
-1.69912 -0.46458 -0.32378
-1.69661 -0.46245 -0.32343
-1.69507 -0.46060 -0.32306
-1.69828 -0.46003 -0.32361
-1.69770 -0.45844 -0.32343
-1.69426 -0.45607 -0.32270
-1.69367 -0.45448 -0.32252
-1.69688 -0.45391 -0.32306
-1.69819 -0.45282 -0.32325
-1.69664 -0.45098 -0.32288
-1.69414 -0.44888 -0.32234
-1.69545 -0.44780 -0.32252
-1.69580 -0.44646 -0.32252
-1.69235 -0.44412 -0.32180
-1.68988 -0.44205 -0.32107
-1.69022 -0.44072 -0.32107
-1.69343 -0.44012 -0.32162
-1.69377 -0.43879 -0.32162
-1.69225 -0.43697 -0.32107
-1.69069 -0.43514 -0.32071
-1.68912 -0.43332 -0.32035
-1.68946 -0.43199 -0.32035
-1.70219 -0.43381 -0.32270
-1.71493 -0.43562 -0.32505
-1.71336 -0.43378 -0.32469
-1.62573 -0.72246 -0.32792
-1.65417 -0.73354 -0.33355
-1.65924 -0.73423 -0.33446
-1.65985 -0.73293 -0.33427
-1.65949 -0.73122 -0.33428
-1.66010 -0.72993 -0.33409
-1.65974 -0.72821 -0.33411
-1.66034 -0.72692 -0.33392
-1.65821 -0.72443 -0.33338
-1.65788 -0.72273 -0.33320
-1.65848 -0.72144 -0.33301
-1.65904 -0.72014 -0.33302
-1.65780 -0.71805 -0.33266
-1.65656 -0.71597 -0.33230
-1.65622 -0.71427 -0.33212
-1.65588 -0.71258 -0.33194
-1.65644 -0.71128 -0.33195
-1.65703 -0.70999 -0.33176
-1.65755 -0.70867 -0.33195
-1.65627 -0.70658 -0.33178
-1.65682 -0.70528 -0.33179
-1.65647 -0.70359 -0.33161
-1.65518 -0.70151 -0.33144
-1.65482 -0.69982 -0.33126
-1.65628 -0.69890 -0.33145
-1.65592 -0.69722 -0.33127
-1.65466 -0.69515 -0.33091
-1.65339 -0.69309 -0.33055
-1.65393 -0.69179 -0.33055
-1.65360 -0.69012 -0.33019
-1.65320 -0.68843 -0.33020
-1.65556 -0.68788 -0.33056
-1.64685 -0.65709 -0.32699
-1.64737 -0.65579 -0.32700
-1.65062 -0.65558 -0.32754
-1.65114 -0.65429 -0.32755
-1.64888 -0.65189 -0.32719
-1.64759 -0.64988 -0.32665
-1.64993 -0.64931 -0.32701
-1.65041 -0.64800 -0.32720
-1.64729 -0.64528 -0.32629
-1.64779 -0.64398 -0.32630
-1.64921 -0.64304 -0.32648
-1.64880 -0.64139 -0.32630
-1.64839 -0.63973 -0.32612
-1.64797 -0.63808 -0.32595
-1.64756 -0.63643 -0.32577
-1.64717 -0.63479 -0.32540
-1.64767 -0.63350 -0.32541
-1.64725 -0.63185 -0.32523
-1.64683 -0.63020 -0.32505
-1.64640 -0.62855 -0.32487
-1.64873 -0.62796 -0.32524
-1.63803 -0.59744 -0.32167
-1.63850 -0.59614 -0.32167
-1.63989 -0.59518 -0.32186
-1.64128 -0.59423 -0.32204
-1.64175 -0.59293 -0.32205
-1.64129 -0.59130 -0.32187
-1.64083 -0.58967 -0.32169
-1.64130 -0.58838 -0.32169
-1.64083 -0.58675 -0.32152
-1.64133 -0.58547 -0.32134
-1.64086 -0.58384 -0.32116
-1.64129 -0.58254 -0.32134
-1.63989 -0.58059 -0.32098
-1.63942 -0.57896 -0.32081
-1.63988 -0.57767 -0.32081
-1.63941 -0.57605 -0.32063
-1.63893 -0.57443 -0.32045
-1.63938 -0.57314 -0.32045
-1.63887 -0.57151 -0.32046
-1.63840 -0.56989 -0.32028
-1.63884 -0.56860 -0.32028
-1.64301 -0.56859 -0.32101
-1.63085 -0.53715 -0.31672
-1.63314 -0.53648 -0.31708
-1.63450 -0.53550 -0.31727
-1.63489 -0.53420 -0.31745
-1.63437 -0.53260 -0.31727
-1.63573 -0.53161 -0.31746
-1.63615 -0.53033 -0.31746
-1.63376 -0.52813 -0.31692
-1.63133 -0.52592 -0.31656
-1.63175 -0.52463 -0.31656
-1.63210 -0.52333 -0.31692
-1.63163 -0.52176 -0.31639
-1.63111 -0.52017 -0.31621
-1.63245 -0.51918 -0.31639
-1.63286 -0.51789 -0.31639
-1.63140 -0.51601 -0.31604
-1.62993 -0.51414 -0.31567
-1.63033 -0.51285 -0.31568
-1.63170 -0.51187 -0.31568
-1.63117 -0.51028 -0.31550
-1.63063 -0.50870 -0.31533
-1.63103 -0.50742 -0.31533
-1.63988 -0.50875 -0.31697
-1.62178 -0.47661 -0.31248
-1.62215 -0.47533 -0.31248
-1.62347 -0.47432 -0.31267
-1.62384 -0.47304 -0.31267
-1.62327 -0.47149 -0.31249
-1.62462 -0.47049 -0.31250
-1.62593 -0.46948 -0.31268
-1.62539 -0.46793 -0.31233
-1.62481 -0.46638 -0.31215
-1.62420 -0.46482 -0.31215
-1.62365 -0.46328 -0.31179
-1.62402 -0.46199 -0.31179
-1.62722 -0.46152 -0.31234
-1.70493 -0.45318 -0.32599
-1.70339 -0.45133 -0.32563
-1.70089 -0.44923 -0.32509
-1.70124 -0.44789 -0.32509
-1.70350 -0.44705 -0.32545
-1.70480 -0.44595 -0.32563
-1.70230 -0.44387 -0.32509
-1.69887 -0.44154 -0.32418
-1.69824 -0.43994 -0.32418
-1.70144 -0.43934 -0.32473
-1.70179 -0.43800 -0.32473
-1.69927 -0.43593 -0.32418
-1.70152 -0.43507 -0.32454
-1.64262 -0.72996 -0.33250
-1.65487 -0.73385 -0.33487
-1.65725 -0.73334 -0.33524
-1.65872 -0.73244 -0.33542
-1.66110 -0.73193 -0.33579
-1.66077 -0.73022 -0.33561
-1.65864 -0.72773 -0.33507
-1.65741 -0.72564 -0.33471
-1.65798 -0.72433 -0.33471
-1.65855 -0.72303 -0.33471
-1.65822 -0.72133 -0.33453
-1.65698 -0.71924 -0.33417
-1.65664 -0.71755 -0.33399
-1.65808 -0.71662 -0.33437
-1.65864 -0.71532 -0.33437
-1.65649 -0.71285 -0.33383
-1.65434 -0.71038 -0.33329
-1.65577 -0.70945 -0.33366
-1.65633 -0.70815 -0.33366
-1.65511 -0.70609 -0.33311
-1.65472 -0.70439 -0.33313
-1.65437 -0.70270 -0.33295
-1.65405 -0.70103 -0.33258
-1.65460 -0.69973 -0.33258
-1.65512 -0.69841 -0.33277
-1.65479 -0.69674 -0.33241
-1.65262 -0.69430 -0.33186
-1.65316 -0.69300 -0.33187
-1.65371 -0.69170 -0.33187
-1.65334 -0.69002 -0.33169
-1.65392 -0.68873 -0.33151
-1.65537 -0.68780 -0.33169
-1.64973 -0.65974 -0.32921
-1.64660 -0.65699 -0.32848
-1.64803 -0.65605 -0.32867
-1.65040 -0.65550 -0.32885
-1.65000 -0.65384 -0.32867
-1.64868 -0.65181 -0.32831
-1.64828 -0.65016 -0.32813
-1.64788 -0.64850 -0.32795
-1.64656 -0.64648 -0.32759
-1.64706 -0.64519 -0.32759
-1.64760 -0.64390 -0.32741
-1.64811 -0.64261 -0.32741
-1.64769 -0.64096 -0.32723
-1.64911 -0.64002 -0.32742
-1.64867 -0.63835 -0.32743
-1.64825 -0.63670 -0.32725
-1.64783 -0.63505 -0.32707
-1.64833 -0.63375 -0.32707
-1.64608 -0.63140 -0.32653
-1.64565 -0.62975 -0.32635
-1.64982 -0.62986 -0.32708
-1.64338 -0.59939 -0.32386
-1.63923 -0.59641 -0.32296
-1.63970 -0.59511 -0.32296
-1.64202 -0.59449 -0.32333
-1.64063 -0.59253 -0.32297
-1.63925 -0.59057 -0.32260
-1.63876 -0.58893 -0.32261
-1.63830 -0.58730 -0.32243
-1.63876 -0.58601 -0.32243
-1.64107 -0.58538 -0.32280
-1.64153 -0.58408 -0.32280
-1.64011 -0.58212 -0.32262
-1.63964 -0.58049 -0.32245
-1.64010 -0.57920 -0.32245
-1.63962 -0.57758 -0.32227
-1.63822 -0.57564 -0.32191
-1.63868 -0.57434 -0.32191
-1.63913 -0.57305 -0.32191
-1.63772 -0.57111 -0.32155
-1.63724 -0.56949 -0.32137
-1.63862 -0.56852 -0.32156
-1.64464 -0.56916 -0.32266
-1.63761 -0.54081 -0.31980
-1.62960 -0.53674 -0.31834
-1.62909 -0.53515 -0.31816
-1.63138 -0.53447 -0.31853
-1.63460 -0.53410 -0.31908
-1.63315 -0.53220 -0.31872
-1.63264 -0.53061 -0.31854
-1.63305 -0.52932 -0.31854
-1.63350 -0.52804 -0.31836
-1.63295 -0.52644 -0.31836
-1.63243 -0.52485 -0.31818
-1.63191 -0.52326 -0.31800
-1.63141 -0.52169 -0.31765
-1.62992 -0.51979 -0.31746
-1.63317 -0.51941 -0.31783
-1.63264 -0.51782 -0.31765
-1.63027 -0.51566 -0.31693
-1.63067 -0.51437 -0.31693
-1.63108 -0.51308 -0.31694
-1.63054 -0.51150 -0.31676
-1.63001 -0.50992 -0.31658
-1.62947 -0.50834 -0.31640
-1.63172 -0.50763 -0.31695
-1.62687 -0.47950 -0.31463
-1.62253 -0.47683 -0.31372
-1.62288 -0.47554 -0.31391
-1.62422 -0.47454 -0.31391
-1.62365 -0.47299 -0.31373
-1.62308 -0.47143 -0.31355
-1.62345 -0.47015 -0.31356
-1.62477 -0.46914 -0.31374
-1.62419 -0.46759 -0.31356
-1.62456 -0.46631 -0.31357
-1.62395 -0.46475 -0.31356
-1.62337 -0.46320 -0.31339
-1.62279 -0.46165 -0.31321
-1.62977 -0.46224 -0.31449
-1.64855 -0.73260 -0.33586
-1.65632 -0.73449 -0.33732
-1.65779 -0.73359 -0.33751
-1.65747 -0.73188 -0.33733
-1.65804 -0.73058 -0.33733
-1.65858 -0.72926 -0.33753
-1.65916 -0.72796 -0.33753
-1.65793 -0.72586 -0.33717
-1.65850 -0.72456 -0.33717
-1.65813 -0.72285 -0.33718
-1.65783 -0.72116 -0.33681
-1.65746 -0.71945 -0.33682
-1.65809 -0.71818 -0.33645
-1.65866 -0.71687 -0.33645
-1.65648 -0.71439 -0.33609
-1.65433 -0.71192 -0.33555
-1.65308 -0.70984 -0.33518
-1.65367 -0.70855 -0.33500
-1.65423 -0.70725 -0.33500
-1.65478 -0.70595 -0.33500
-1.65443 -0.70426 -0.33482
-1.65408 -0.70258 -0.33465
-1.65373 -0.70089 -0.33447
-1.65243 -0.69881 -0.33429
-1.65298 -0.69751 -0.33429
-1.65262 -0.69583 -0.33411
-1.65226 -0.69415 -0.33393
-1.65190 -0.69247 -0.33375
-1.65154 -0.69079 -0.33357
-1.65117 -0.68911 -0.33339
-1.65081 -0.68743 -0.33321
-1.65316 -0.68689 -0.33358
-1.65370 -0.68559 -0.33359
-1.64966 -0.68240 -0.33286
-1.64838 -0.68035 -0.33250
-1.64801 -0.67868 -0.33232
-1.64672 -0.67663 -0.33196
-1.64543 -0.67459 -0.33159
-1.64687 -0.67367 -0.33178
-1.64740 -0.67237 -0.33178
-1.64429 -0.66959 -0.33105
-1.64390 -0.66793 -0.33087
-1.64667 -0.65852 -0.33052
-1.64536 -0.65649 -0.33016
-1.64591 -0.65521 -0.32998
-1.64825 -0.65464 -0.33035
-1.64876 -0.65334 -0.33035
-1.64833 -0.65167 -0.33036
-1.64701 -0.64965 -0.32999
-1.64756 -0.64837 -0.32981
-1.64715 -0.64672 -0.32963
-1.64674 -0.64506 -0.32945
-1.64630 -0.64340 -0.32946
-1.64772 -0.64246 -0.32964
-1.64731 -0.64080 -0.32946
-1.64595 -0.63879 -0.32928
-1.64645 -0.63749 -0.32929
-1.64698 -0.63621 -0.32911
-1.64745 -0.63490 -0.32930
-1.64516 -0.63253 -0.32893
-1.64474 -0.63089 -0.32875
-1.64615 -0.62994 -0.32894
-1.65219 -0.63077 -0.32986
-1.63834 -0.59755 -0.32533
-1.63697 -0.59559 -0.32497
-1.63928 -0.59496 -0.32534
-1.64068 -0.59401 -0.32553
-1.63834 -0.59170 -0.32516
-1.63880 -0.59040 -0.32517
-1.63927 -0.58911 -0.32517
-1.63973 -0.58782 -0.32517
-1.63927 -0.58619 -0.32499
-1.64066 -0.58523 -0.32518
-1.64019 -0.58361 -0.32500
-1.63972 -0.58198 -0.32482
-1.63929 -0.58037 -0.32445
-1.63882 -0.57875 -0.32427
-1.63834 -0.57713 -0.32409
-1.63787 -0.57551 -0.32391
-1.63836 -0.57423 -0.32373
-1.63881 -0.57294 -0.32374
-1.63647 -0.57067 -0.32319
-1.63600 -0.56906 -0.32301
-1.63737 -0.56809 -0.32320
-1.64990 -0.57098 -0.32558
-1.63073 -0.53854 -0.32050
-1.63022 -0.53694 -0.32032
-1.63064 -0.53566 -0.32033
-1.63106 -0.53437 -0.32033
-1.63055 -0.53278 -0.32015
-1.63190 -0.53180 -0.32034
-1.63232 -0.53051 -0.32034
-1.63274 -0.52922 -0.32034
-1.63128 -0.52733 -0.31998
-1.63263 -0.52634 -0.32016
-1.63117 -0.52445 -0.31980
-1.62971 -0.52256 -0.31944
-1.63013 -0.52128 -0.31944
-1.63054 -0.51999 -0.31944
-1.62907 -0.51811 -0.31908
-1.62948 -0.51682 -0.31908
-1.62989 -0.51554 -0.31909
-1.63026 -0.51424 -0.31927
-1.63066 -0.51295 -0.31927
-1.62919 -0.51108 -0.31891
-1.62772 -0.50921 -0.31854
-1.62812 -0.50792 -0.31855
-1.63224 -0.50779 -0.31946
-1.62181 -0.47801 -0.31568
-1.62218 -0.47673 -0.31568
-1.62350 -0.47572 -0.31587
-1.62576 -0.47499 -0.31624
-1.62331 -0.47289 -0.31569
-1.62270 -0.47132 -0.31568
-1.62307 -0.47004 -0.31569
-1.62439 -0.46903 -0.31588
-1.62381 -0.46748 -0.31569
-1.62226 -0.46565 -0.31551
-1.62265 -0.46438 -0.31533
-1.62018 -0.46229 -0.31478
-1.62055 -0.46101 -0.31479
-1.63793 -0.46456 -0.31810
-1.65006 -0.73327 -0.33793
-1.65602 -0.73436 -0.33904
-1.65660 -0.73306 -0.33904
-1.65718 -0.73176 -0.33904
-1.65778 -0.73047 -0.33886
-1.65746 -0.72876 -0.33868
-1.65713 -0.72707 -0.33850
-1.65680 -0.72537 -0.33831
-1.65647 -0.72367 -0.33814
-1.65707 -0.72238 -0.33795
-1.65673 -0.72069 -0.33777
-1.65640 -0.71899 -0.33759
-1.65783 -0.71806 -0.33796
-1.65749 -0.71637 -0.33778
-1.65448 -0.71352 -0.33686
-1.65320 -0.71143 -0.33669
-1.65286 -0.70974 -0.33651
-1.65341 -0.70844 -0.33651
-1.65394 -0.70713 -0.33670
-1.65359 -0.70544 -0.33652
-1.65233 -0.70337 -0.33616
-1.65288 -0.70207 -0.33616
-1.65250 -0.70037 -0.33617
-1.65214 -0.69869 -0.33599
-1.65178 -0.69701 -0.33581
-1.65052 -0.69494 -0.33544
-1.65019 -0.69328 -0.33507
-1.64980 -0.69159 -0.33508
-1.65037 -0.69030 -0.33489
-1.65091 -0.68900 -0.33490
-1.65146 -0.68770 -0.33490
-1.65109 -0.68603 -0.33472
-1.65072 -0.68435 -0.33454
-1.64944 -0.68230 -0.33417
-1.64819 -0.68027 -0.33362
-1.64781 -0.67860 -0.33344
-1.64835 -0.67730 -0.33344
-1.64888 -0.67600 -0.33345
-1.64941 -0.67471 -0.33345
-1.64994 -0.67341 -0.33345
-1.64956 -0.67174 -0.33327
-1.64644 -0.66896 -0.33254
-1.64693 -0.66765 -0.33273
-1.64655 -0.66599 -0.33255
-1.64616 -0.66433 -0.33237
-1.64486 -0.66230 -0.33200
-1.64626 -0.66136 -0.33238
-1.65042 -0.66152 -0.33312
-1.64638 -0.65840 -0.33220
-1.64507 -0.65638 -0.33183
-1.64559 -0.65508 -0.33184
-1.64701 -0.65415 -0.33203
-1.64753 -0.65285 -0.33203
-1.64713 -0.65120 -0.33185
-1.64581 -0.64918 -0.33148
-1.64632 -0.64789 -0.33149
-1.64683 -0.64659 -0.33149
-1.64828 -0.64567 -0.33149
-1.64696 -0.64365 -0.33113
-1.64563 -0.64164 -0.33076
-1.64522 -0.63999 -0.33058
-1.64572 -0.63870 -0.33058
-1.64625 -0.63742 -0.33040
-1.64489 -0.63540 -0.33022
-1.64542 -0.63412 -0.33004
-1.64503 -0.63248 -0.32967
-1.64458 -0.63082 -0.32968
-1.64507 -0.62953 -0.32968
-1.64924 -0.62964 -0.33042
-1.63996 -0.59814 -0.32698
-1.63766 -0.59584 -0.32643
-1.63813 -0.59455 -0.32644
-1.63953 -0.59359 -0.32662
-1.63907 -0.59196 -0.32644
-1.63953 -0.59067 -0.32645
-1.64000 -0.58937 -0.32645
-1.63954 -0.58775 -0.32627
-1.64000 -0.58645 -0.32627
-1.64043 -0.58515 -0.32646
-1.63996 -0.58352 -0.32628
-1.63860 -0.58158 -0.32573
-1.63813 -0.57996 -0.32555
-1.63763 -0.57833 -0.32555
-1.63716 -0.57671 -0.32537
-1.63669 -0.57510 -0.32519
-1.63714 -0.57380 -0.32519
-1.63852 -0.57284 -0.32538
-1.63711 -0.57090 -0.32501
-1.63567 -0.56895 -0.32483
-1.63523 -0.56734 -0.32447
-1.64124 -0.56798 -0.32558
-1.63237 -0.53908 -0.32214
-1.62999 -0.53687 -0.32159
-1.63041 -0.53558 -0.32159
-1.63084 -0.53430 -0.32159
-1.63122 -0.53300 -0.32177
-1.62977 -0.53110 -0.32141
-1.63019 -0.52982 -0.32141
-1.63061 -0.52853 -0.32142
-1.63009 -0.52694 -0.32123
-1.63047 -0.52564 -0.32142
-1.63089 -0.52436 -0.32142
-1.62946 -0.52248 -0.32088
-1.62984 -0.52118 -0.32106
-1.63025 -0.51990 -0.32106
-1.63066 -0.51861 -0.32106
-1.63110 -0.51733 -0.32089
-1.62963 -0.51545 -0.32052
-1.63004 -0.51417 -0.32053
-1.63044 -0.51288 -0.32053
-1.62991 -0.51130 -0.32035
-1.62843 -0.50943 -0.31998
-1.62789 -0.50785 -0.31980
-1.63208 -0.50774 -0.32036
-1.62055 -0.47763 -0.31727
-1.61907 -0.47581 -0.31672
-1.62133 -0.47509 -0.31710
-1.62264 -0.47408 -0.31728
-1.62396 -0.47308 -0.31747
-1.62342 -0.47153 -0.31711
-1.62379 -0.47025 -0.31711
-1.62322 -0.46870 -0.31693
-1.62264 -0.46714 -0.31675
-1.62207 -0.46559 -0.31657
-1.62243 -0.46431 -0.31657
-1.61996 -0.46222 -0.31602
-1.61843 -0.46041 -0.31566
