-1.37049 -0.65077 -0.46563
-1.37014 -0.64929 -0.46534
-1.36801 -0.64696 -0.46463
-1.36770 -0.64550 -0.46417
-1.36902 -0.64481 -0.46463
-1.37039 -0.64414 -0.46493
-1.37176 -0.64347 -0.46522
-1.37227 -0.64239 -0.46523
-1.37364 -0.64172 -0.46553
-1.37501 -0.64104 -0.46582
-1.37373 -0.63913 -0.46540
-1.37250 -0.63725 -0.46482
-1.37473 -0.63697 -0.46541
-1.37696 -0.63670 -0.46600
-1.37660 -0.63521 -0.46571
-1.37623 -0.63373 -0.46542
-1.37764 -0.63307 -0.46555
-1.37726 -0.63159 -0.46526
-1.37776 -0.63051 -0.46526
-1.37999 -0.63022 -0.46585
-1.38049 -0.62913 -0.46586
-1.37928 -0.62728 -0.46511
-1.37803 -0.62540 -0.46452
-1.37939 -0.62472 -0.46482
-1.38076 -0.62403 -0.46512
-1.38124 -0.62294 -0.46512
-1.38091 -0.62148 -0.46466
-1.38052 -0.62000 -0.46437
-1.38275 -0.61970 -0.46496
-1.38581 -0.61976 -0.46601
-1.38455 -0.61789 -0.46543
-1.38329 -0.61602 -0.46484
-1.38290 -0.61455 -0.46455
-1.38596 -0.61460 -0.46560
-1.38731 -0.61390 -0.46590
-1.38692 -0.61242 -0.46561
-1.38473 -0.61015 -0.46489
-1.38521 -0.60906 -0.46490
-1.38831 -0.60912 -0.46578
-1.39054 -0.60880 -0.46637
-1.39102 -0.60770 -0.46637
-1.39150 -0.60661 -0.46638
-1.39027 -0.60477 -0.46563
-1.38986 -0.60330 -0.46534
-1.39034 -0.60220 -0.46534
-1.39081 -0.60111 -0.46534
-1.38952 -0.59926 -0.46476
-1.38999 -0.59816 -0.46476
-1.39222 -0.59783 -0.46535
-1.39357 -0.59710 -0.46565
-1.39145 -0.59490 -0.46461
-1.39103 -0.59343 -0.46432
-1.39321 -0.59307 -0.46507
-1.39636 -0.59311 -0.46579
-1.39590 -0.59162 -0.46566
-1.39548 -0.59015 -0.46537
-1.39507 -0.58868 -0.46508
-1.39641 -0.58795 -0.46538
-1.39863 -0.58759 -0.46597
-1.40086 -0.58723 -0.46656
-1.40044 -0.58576 -0.46627
-1.39913 -0.58392 -0.46569
-1.39689 -0.58170 -0.46497
-1.39647 -0.58023 -0.46468
-1.39869 -0.57987 -0.46527
-1.40179 -0.57986 -0.46616
-1.40132 -0.57837 -0.46603
-1.40089 -0.57691 -0.46574
-1.40311 -0.57653 -0.46633
-1.40538 -0.57617 -0.46676
-1.40490 -0.57469 -0.46663
-1.40451 -0.57324 -0.46618
-1.40496 -0.57213 -0.46618
-1.40452 -0.57067 -0.46589
-1.40236 -0.56851 -0.46484
-1.40458 -0.56812 -0.46543
-1.40946 -0.56880 -0.46691
-1.40635 -0.56627 -0.46573
-1.40414 -0.56409 -0.46486
-1.40724 -0.56405 -0.46574
-1.41128 -0.56438 -0.46675
-1.41079 -0.56290 -0.46663
-1.40861 -0.56075 -0.46558
-1.41083 -0.56034 -0.46617
-1.41127 -0.55923 -0.46618
-1.40815 -0.55672 -0.46501
-1.40854 -0.55559 -0.46517
-1.41165 -0.55553 -0.46606
-1.41208 -0.55442 -0.46606
-1.41074 -0.55261 -0.46548
-1.41295 -0.55220 -0.46607
-1.41605 -0.55213 -0.46695
-1.41555 -0.55065 -0.46683
-1.41687 -0.54988 -0.46712
-1.41730 -0.54877 -0.46713
-1.41675 -0.54727 -0.46717
-1.41638 -0.54585 -0.46654
-1.41859 -0.54542 -0.46714
-1.42170 -0.54533 -0.46802
-1.42212 -0.54421 -0.46802
-1.42255 -0.54309 -0.46803
-1.42030 -0.54095 -0.46715
-1.41809 -0.53884 -0.46610
-1.42030 -0.53840 -0.46669
-1.42072 -0.53728 -0.46670
-1.42204 -0.53650 -0.46699
-1.42335 -0.53572 -0.46729
-1.42377 -0.53460 -0.46729
-1.42329 -0.53314 -0.46700
-1.42192 -0.53135 -0.46642
-1.42144 -0.52990 -0.46613
-1.42365 -0.52945 -0.46672
-1.42586 -0.52899 -0.46731
-1.42623 -0.52785 -0.46748
-1.42485 -0.52606 -0.46689
-1.42526 -0.52494 -0.46690
-1.42747 -0.52447 -0.46749
-1.43057 -0.52433 -0.46837
-1.42825 -0.52220 -0.46766
-1.42417 -0.51943 -0.46619
-1.43168 -0.51834 -0.46826
-1.43515 -0.50301 -0.46754
-1.43650 -0.50221 -0.46768
-1.43509 -0.50045 -0.46709
-1.44360 -0.47800 -0.46778
-1.44488 -0.47716 -0.46807
-1.46217 -0.39979 -0.46650
-1.46917 -0.37689 -0.46697
-1.46674 -0.37504 -0.46593
-1.46893 -0.35836 -0.46535
-1.18691 -0.94970 -0.46628
-1.18844 -0.94939 -0.46641
-1.19933 -0.92762 -0.46534
-1.20009 -0.92671 -0.46517
-1.20234 -0.92693 -0.46576
-1.20796 -0.91474 -0.46508
-1.20711 -0.91261 -0.46466
-1.21245 -0.91515 -0.46626
-1.21618 -0.91646 -0.46760
-1.21460 -0.91378 -0.46673
-1.20997 -0.90881 -0.46468
-1.21068 -0.90786 -0.46468
-1.21216 -0.90748 -0.46497
-1.21364 -0.90710 -0.46527
-1.21358 -0.90558 -0.46498
-1.21429 -0.90462 -0.46498
-1.21577 -0.90424 -0.46528
-1.21724 -0.90385 -0.46558
-1.21718 -0.90233 -0.46529
-1.21640 -0.90026 -0.46454
-1.21710 -0.89931 -0.46454
-1.25420 -0.85675 -0.46677
-1.25093 -0.85307 -0.46531
-1.25239 -0.85262 -0.46560
-1.25148 -0.85055 -0.46502
-1.25136 -0.84903 -0.46473
-1.25282 -0.84858 -0.46503
-1.25586 -0.84920 -0.46591
-1.25653 -0.84820 -0.46591
-1.25561 -0.84614 -0.46533
-1.25553 -0.84465 -0.46487
-1.25619 -0.84366 -0.46488
-1.25765 -0.84320 -0.46517
-1.25915 -0.84276 -0.46531
-1.25982 -0.84177 -0.46531
-1.26127 -0.84130 -0.46560
-1.26353 -0.84137 -0.46620
-1.26101 -0.83825 -0.46502
-1.26087 -0.83673 -0.46473
-1.26312 -0.83679 -0.46532
-1.26458 -0.83632 -0.46562
-1.26289 -0.83377 -0.46458
-1.26350 -0.83274 -0.46475
-1.26496 -0.83227 -0.46504
-1.26641 -0.83180 -0.46534
-1.26547 -0.82975 -0.46475
-1.26612 -0.82875 -0.46476
-1.26753 -0.82825 -0.46522
-1.26738 -0.82673 -0.46493
-1.26799 -0.82570 -0.46510
-1.26784 -0.82417 -0.46481
-1.26528 -0.82109 -0.46363
-1.26593 -0.82009 -0.46364
-1.27059 -0.82169 -0.46511
-1.27445 -0.82276 -0.46629
-1.27429 -0.82124 -0.46600
-1.27413 -0.81971 -0.46570
-1.27397 -0.81819 -0.46541
-1.27381 -0.81667 -0.46512
-1.27365 -0.81515 -0.46483
-1.27434 -0.81417 -0.46467
-1.27417 -0.81265 -0.46438
-1.27723 -0.81318 -0.46526
-1.28029 -0.81371 -0.46615
-1.27851 -0.81117 -0.46527
-1.27592 -0.80811 -0.46410
-1.27736 -0.80761 -0.46440
-1.27962 -0.80763 -0.46499
-1.28025 -0.80662 -0.46499
-1.27927 -0.80459 -0.46440
-1.27909 -0.80307 -0.46411
-1.28215 -0.80358 -0.46500
-1.28441 -0.80358 -0.46559
-1.28500 -0.80254 -0.46576
-1.28401 -0.80052 -0.46517
-1.28301 -0.79849 -0.46459
-1.28445 -0.79799 -0.46488
-1.28594 -0.79750 -0.46502
-1.28652 -0.79646 -0.46518
-1.28467 -0.79391 -0.46447
-1.28534 -0.79292 -0.46431
-1.28677 -0.79241 -0.46460
-1.28736 -0.79137 -0.46477
-1.28716 -0.78985 -0.46448
-1.28697 -0.78834 -0.46419
-1.28845 -0.78785 -0.46432
-1.29152 -0.78832 -0.46521
-1.29214 -0.78730 -0.46521
-1.29276 -0.78628 -0.46521
-1.29746 -0.78774 -0.46669
-1.29649 -0.78575 -0.46594
-1.29384 -0.78275 -0.46476
-1.29282 -0.78074 -0.46418
-1.29343 -0.77972 -0.46418
-1.29491 -0.77922 -0.46431
-1.29630 -0.77866 -0.46478
-1.29777 -0.77816 -0.46491
-1.29834 -0.77711 -0.46508
-1.30146 -0.77758 -0.46580
-1.30371 -0.77753 -0.46639
-1.30351 -0.77601 -0.46609
-1.29996 -0.77252 -0.46480
-1.29975 -0.77100 -0.46450
-1.30365 -0.77193 -0.46568
-1.30421 -0.77087 -0.46585
-1.30070 -0.76741 -0.46438
-1.30295 -0.76736 -0.46498
-1.30685 -0.76826 -0.46615
-1.30577 -0.76624 -0.46573
-1.30307 -0.76328 -0.46456
-1.30285 -0.76177 -0.46427
-1.30675 -0.76267 -0.46545
-1.31065 -0.76356 -0.46663
-1.31047 -0.76207 -0.46617
-1.30694 -0.75863 -0.46470
-1.30919 -0.75856 -0.46530
-1.30978 -0.75753 -0.46530
-1.31038 -0.75650 -0.46530
-1.31512 -0.75785 -0.46677
-1.31571 -0.75681 -0.46678
-1.31134 -0.75291 -0.46502
-1.30949 -0.75048 -0.46397
-1.31091 -0.74992 -0.46427
-1.31150 -0.74889 -0.46427
-1.31204 -0.74782 -0.46444
-1.31434 -0.74776 -0.46487
-1.31322 -0.74575 -0.46445
-1.31380 -0.74472 -0.46445
-1.31693 -0.74512 -0.46517
-1.31752 -0.74408 -0.46517
-1.31556 -0.74160 -0.46446
-1.31614 -0.74057 -0.46446
-1.31756 -0.73999 -0.46476
-1.31727 -0.73846 -0.46463
-1.31785 -0.73742 -0.46464
-1.32010 -0.73732 -0.46523
-1.32151 -0.73674 -0.46552
-1.32288 -0.73613 -0.46599
-1.32179 -0.73416 -0.46540
-1.32074 -0.73222 -0.46465
-1.32132 -0.73118 -0.46465
-1.32185 -0.73011 -0.46482
-1.32242 -0.72906 -0.46482
-1.32304 -0.72805 -0.46466
-1.32445 -0.72746 -0.46496
-1.32507 -0.72644 -0.46480
-1.32480 -0.72493 -0.46451
-1.32537 -0.72389 -0.46451
-1.32426 -0.72193 -0.46392
-1.32315 -0.71997 -0.46334
-1.32456 -0.71938 -0.46364
-1.32933 -0.72061 -0.46511
-1.33494 -0.72229 -0.46688
-1.33467 -0.72079 -0.46659
-1.33019 -0.71701 -0.46483
-1.32827 -0.71463 -0.46378
-1.33051 -0.71449 -0.46437
-1.33276 -0.71434 -0.46496
-1.33163 -0.71239 -0.46438
-1.33130 -0.71087 -0.46425
-1.33186 -0.70983 -0.46426
-1.33242 -0.70878 -0.46426
-1.33293 -0.70771 -0.46443
-1.33264 -0.70621 -0.46414
-1.33404 -0.70561 -0.46443
-1.33548 -0.70503 -0.46457
-1.33594 -0.70394 -0.46490
-1.33823 -0.70380 -0.46532
-1.34043 -0.70361 -0.46608
-1.34018 -0.70214 -0.46562
-1.33819 -0.69976 -0.46474
-1.33959 -0.69915 -0.46504
-1.33929 -0.69765 -0.46475
-1.34068 -0.69704 -0.46505
-1.34377 -0.69731 -0.46593
-1.34351 -0.69584 -0.46548
-1.34151 -0.69346 -0.46460
-1.34375 -0.69329 -0.46519
-1.34685 -0.69354 -0.46607
-1.34484 -0.69117 -0.46520
-1.34194 -0.68835 -0.46419
-1.34418 -0.68817 -0.46478
-1.34727 -0.68841 -0.46566
-1.34700 -0.68694 -0.46521
-1.34584 -0.68502 -0.46462
-1.34637 -0.68396 -0.46463
-1.34772 -0.68331 -0.46509
-1.34996 -0.68312 -0.46568
-1.34793 -0.68076 -0.46480
-1.34761 -0.67927 -0.46451
-1.34895 -0.67862 -0.46497
-1.35205 -0.67885 -0.46586
-1.35177 -0.67738 -0.46540
-1.35059 -0.67546 -0.46481
-1.35450 -0.67608 -0.46616
-1.35503 -0.67502 -0.46616
-1.35470 -0.67353 -0.46587
-1.35437 -0.67204 -0.46558
-1.35576 -0.67140 -0.46588
-1.35628 -0.67033 -0.46588
-1.35509 -0.66842 -0.46529
-1.35304 -0.66609 -0.46441
-1.35275 -0.66463 -0.46396
-1.35585 -0.66483 -0.46484
-1.35895 -0.66502 -0.46573
-1.35947 -0.66395 -0.46573
-1.35913 -0.66247 -0.46544
-1.35793 -0.66056 -0.46486
-1.35845 -0.65949 -0.46486
-1.35729 -0.65761 -0.46411
-1.35780 -0.65655 -0.46411
-1.35918 -0.65590 -0.46441
-1.35969 -0.65483 -0.46441
-1.36107 -0.65417 -0.46471
-1.36330 -0.65393 -0.46530
-1.36381 -0.65286 -0.46530
-1.36433 -0.65179 -0.46531
-1.36311 -0.64989 -0.46472
-1.36185 -0.64798 -0.46430
-1.36408 -0.64773 -0.46489
-1.36714 -0.64786 -0.46594
-1.36510 -0.64558 -0.46490
-1.36469 -0.64408 -0.46477
-1.36779 -0.64423 -0.46566
-1.36916 -0.64356 -0.46596
-1.36702 -0.64125 -0.46524
-1.36844 -0.64060 -0.46537
-1.37327 -0.64155 -0.46685
-1.37377 -0.64047 -0.46685
-1.36907 -0.63697 -0.46509
-1.36957 -0.63589 -0.46509
-1.37359 -0.63644 -0.46610
-1.37491 -0.63575 -0.46657
-1.37367 -0.63386 -0.46598
-1.37334 -0.63240 -0.46553
-1.37471 -0.63172 -0.46582
-1.37607 -0.63104 -0.46612
-1.37570 -0.62956 -0.46583
-1.37619 -0.62848 -0.46583
-1.37668 -0.62740 -0.46583
-1.37456 -0.62513 -0.46496
-1.37505 -0.62405 -0.46496
-1.37554 -0.62297 -0.46496
-1.37777 -0.62268 -0.46555
-1.37909 -0.62197 -0.46602
-1.37957 -0.62088 -0.46602
-1.38006 -0.61979 -0.46602
-1.38055 -0.61871 -0.46602
-1.38278 -0.61840 -0.46662
-1.38501 -0.61809 -0.46721
-1.38457 -0.61659 -0.46708
-1.38156 -0.61395 -0.46591
-1.38030 -0.61209 -0.46532
-1.38340 -0.61216 -0.46621
-1.38563 -0.61185 -0.46680
-1.38611 -0.61076 -0.46680
-1.38484 -0.60890 -0.46622
-1.38356 -0.60704 -0.46563
-1.38317 -0.60557 -0.46534
-1.38539 -0.60525 -0.46593
-1.38849 -0.60530 -0.46682
-1.38985 -0.60459 -0.46712
-1.38949 -0.60313 -0.46666
-1.38826 -0.60130 -0.46591
-1.38873 -0.60021 -0.46591
-1.38915 -0.59910 -0.46608
-1.38967 -0.59802 -0.46592
-1.39102 -0.59731 -0.46621
-1.39061 -0.59584 -0.46592
-1.39107 -0.59474 -0.46593
-1.39418 -0.59477 -0.46681
-1.39464 -0.59367 -0.46681
-1.39071 -0.59071 -0.46535
-1.38853 -0.58850 -0.46447
-1.39076 -0.58815 -0.46506
-1.39381 -0.58815 -0.46611
-1.39251 -0.58631 -0.46552
-1.39204 -0.58483 -0.46540
-1.39515 -0.58484 -0.46628
-1.39737 -0.58448 -0.46687
-1.39606 -0.58264 -0.46629
-1.39652 -0.58154 -0.46629
-1.39962 -0.58154 -0.46718
-1.39743 -0.57934 -0.46630
-1.39612 -0.57752 -0.46571
-1.39746 -0.57678 -0.46601
-1.39884 -0.57607 -0.46614
-1.39929 -0.57496 -0.46614
-1.39974 -0.57386 -0.46615
-1.39931 -0.57240 -0.46586
-1.39799 -0.57058 -0.46527
-1.39932 -0.56984 -0.46557
-1.40331 -0.57017 -0.46675
-1.40464 -0.56943 -0.46705
-1.40509 -0.56832 -0.46705
-1.40465 -0.56686 -0.46676
-1.40154 -0.56433 -0.46558
-1.40110 -0.56287 -0.46529
-1.40332 -0.56248 -0.46588
-1.40464 -0.56173 -0.46618
-1.40775 -0.56168 -0.46707
-1.40819 -0.56058 -0.46707
-1.40592 -0.55839 -0.46636
-1.40635 -0.55729 -0.46636
-1.40679 -0.55618 -0.46636
-1.41021 -0.54730 -0.46655
-1.41153 -0.54653 -0.46685
-1.41552 -0.54680 -0.46803
-1.42398 -0.52446 -0.46792
-1.42350 -0.52301 -0.46763
-1.45000 -0.42364 -0.46646
-1.45217 -0.42303 -0.46705
-1.45434 -0.42242 -0.46764
-1.14206 -0.98355 -0.46397
-1.15882 -0.96513 -0.46449
-1.19897 -0.92734 -0.46682
-1.19969 -0.92639 -0.46682
-1.20066 -0.90921 -0.46425
-1.20518 -0.91115 -0.46572
-1.20975 -0.91311 -0.46703
-1.20890 -0.91098 -0.46661
-1.20584 -0.90719 -0.46498
-1.20655 -0.90624 -0.46498
-1.20955 -0.90701 -0.46587
-1.21103 -0.90664 -0.46616
-1.21097 -0.90511 -0.46587
-1.21015 -0.90302 -0.46529
-1.21009 -0.90150 -0.46500
-1.21080 -0.90054 -0.46500
-1.21227 -0.90016 -0.46530
-1.21221 -0.89864 -0.46501
-1.20831 -0.89428 -0.46324
-1.20747 -0.89219 -0.46265
-1.22261 -0.88270 -0.46492
-1.22093 -0.88003 -0.46421
-1.22322 -0.88021 -0.46463
-1.23611 -0.86022 -0.46456
-1.24751 -0.85218 -0.46591
-1.24739 -0.85066 -0.46562
-1.24490 -0.84752 -0.46444
-1.24478 -0.84600 -0.46415
-1.24786 -0.84666 -0.46487
-1.25086 -0.84725 -0.46592
-1.25232 -0.84680 -0.46622
-1.25140 -0.84474 -0.46563
-1.25127 -0.84322 -0.46534
-1.25356 -0.84332 -0.46577
-1.25339 -0.84177 -0.46564
-1.25167 -0.83919 -0.46476
-1.25313 -0.83873 -0.46506
-1.25538 -0.83880 -0.46565
-1.25604 -0.83781 -0.46565
-1.25666 -0.83679 -0.46582
-1.25732 -0.83580 -0.46582
-1.25797 -0.83481 -0.46583
-1.25939 -0.83432 -0.46629
-1.25929 -0.83282 -0.46583
-1.25835 -0.83077 -0.46525
-1.25900 -0.82978 -0.46525
-1.26046 -0.82931 -0.46555
-1.26107 -0.82829 -0.46571
-1.26172 -0.82729 -0.46572
-1.26317 -0.82682 -0.46602
-1.26542 -0.82687 -0.46661
-1.26611 -0.82590 -0.46645
-1.26516 -0.82386 -0.46586
-1.26505 -0.82236 -0.46540
-1.26570 -0.82136 -0.46541
-1.26795 -0.82140 -0.46600
-1.26860 -0.82040 -0.46600
-1.26844 -0.81888 -0.46571
-1.26909 -0.81788 -0.46571
-1.27134 -0.81791 -0.46631
-1.27037 -0.81588 -0.46572
-1.26780 -0.81281 -0.46454
-1.27005 -0.81284 -0.46514
-1.27230 -0.81287 -0.46573
-1.27218 -0.81138 -0.46527
-1.27035 -0.80880 -0.46456
-1.26857 -0.80626 -0.46368
-1.27082 -0.80629 -0.46427
-1.27468 -0.80733 -0.46545
-1.27770 -0.80783 -0.46650
-1.27753 -0.80631 -0.46621
-1.27574 -0.80377 -0.46533
-1.27637 -0.80276 -0.46533
-1.27862 -0.80277 -0.46592
-1.27844 -0.80126 -0.46563
-1.27660 -0.79870 -0.46492
-1.27727 -0.79772 -0.46475
-1.27709 -0.79621 -0.46446
-1.27772 -0.79520 -0.46447
-1.28078 -0.79570 -0.46535
-1.28303 -0.79570 -0.46594
-1.28040 -0.79267 -0.46477
-1.27778 -0.78965 -0.46359
-1.28084 -0.79015 -0.46448
-1.28472 -0.79114 -0.46566
-1.28371 -0.78913 -0.46508
-1.28356 -0.78764 -0.46462
-1.28658 -0.78810 -0.46567
-1.28643 -0.78661 -0.46521
-1.28537 -0.78457 -0.46479
-1.28604 -0.78358 -0.46463
-1.28829 -0.78356 -0.46522
-1.28968 -0.78302 -0.46569
-1.29029 -0.78200 -0.46569
-1.29091 -0.78098 -0.46569
-1.29230 -0.78043 -0.46615
-1.29209 -0.77892 -0.46586
-1.29025 -0.77642 -0.46498
-1.28840 -0.77392 -0.46410
-1.29065 -0.77389 -0.46469
-1.29368 -0.77431 -0.46574
-1.29515 -0.77381 -0.46588
-1.29330 -0.77132 -0.46500
-1.29308 -0.76981 -0.46470
-1.29611 -0.77023 -0.46576
-1.29676 -0.76923 -0.46559
-1.29572 -0.76723 -0.46501
-1.29633 -0.76621 -0.46501
-1.29940 -0.76664 -0.46590
-1.29918 -0.76513 -0.46561
-1.29813 -0.76314 -0.46502
-1.29960 -0.76262 -0.46515
-1.30268 -0.76305 -0.46604
-1.30245 -0.76154 -0.46575
-1.30305 -0.76051 -0.46575
-1.30448 -0.75996 -0.46605
-1.30507 -0.75893 -0.46605
-1.30489 -0.75745 -0.46560
-1.30466 -0.75594 -0.46531
-1.30525 -0.75491 -0.46531
-1.30502 -0.75340 -0.46502
-1.30479 -0.75189 -0.46472
-1.30533 -0.75084 -0.46489
-1.30597 -0.74983 -0.46473
-1.30569 -0.74830 -0.46460
-1.30457 -0.74630 -0.46418
-1.30682 -0.74621 -0.46477
-1.30824 -0.74566 -0.46507
-1.30799 -0.74415 -0.46478
-1.30858 -0.74312 -0.46478
-1.31244 -0.74394 -0.46613
-1.31386 -0.74338 -0.46643
-1.31278 -0.74140 -0.46584
-1.31253 -0.73990 -0.46555
-1.31312 -0.73886 -0.46555
-1.31291 -0.73738 -0.46509
-1.31099 -0.73494 -0.46421
-1.31157 -0.73391 -0.46422
-1.31465 -0.73427 -0.46510
-1.31523 -0.73323 -0.46511
-1.31501 -0.73176 -0.46465
-1.31642 -0.73118 -0.46495
-1.31863 -0.73104 -0.46571
-1.31757 -0.72910 -0.46496
-1.31815 -0.72806 -0.46496
-1.32039 -0.72795 -0.46555
-1.32264 -0.72783 -0.46614
-1.32321 -0.72678 -0.46615
-1.32374 -0.72571 -0.46631
-1.32348 -0.72421 -0.46602
-1.32153 -0.72179 -0.46514
-1.32126 -0.72029 -0.46485
-1.32434 -0.72062 -0.46574
-1.32575 -0.72003 -0.46603
-1.32464 -0.71807 -0.46545
-1.32516 -0.71700 -0.46562
-1.32656 -0.71641 -0.46591
-1.32544 -0.71445 -0.46532
-1.32517 -0.71296 -0.46503
-1.32657 -0.71237 -0.46533
-1.32712 -0.71132 -0.46533
-1.32515 -0.70893 -0.46445
-1.32567 -0.70786 -0.46462
-1.33048 -0.70909 -0.46593
-1.33272 -0.70894 -0.46653
-1.33075 -0.70655 -0.46564
-1.33299 -0.70640 -0.46624
-1.33270 -0.70491 -0.46595
-1.33161 -0.70299 -0.46519
-1.33300 -0.70239 -0.46549
-1.33440 -0.70179 -0.46579
-1.33410 -0.70029 -0.46550
-1.33554 -0.69971 -0.46563
-1.33694 -0.69910 -0.46593
-1.33494 -0.69673 -0.46505
-1.33295 -0.69435 -0.46417
-1.33519 -0.69419 -0.46476
-1.33658 -0.69358 -0.46506
-1.33628 -0.69209 -0.46476
-1.33767 -0.69148 -0.46506
-1.34161 -0.69218 -0.46625
-1.34210 -0.69110 -0.46641
-1.34179 -0.68961 -0.46612
-1.34318 -0.68899 -0.46642
-1.34202 -0.68706 -0.46583
-1.33916 -0.68427 -0.46465
-1.34050 -0.68363 -0.46512
-1.34444 -0.68431 -0.46630
-1.34498 -0.68325 -0.46631
-1.34381 -0.68133 -0.46572
-1.34349 -0.67984 -0.46542
-1.34402 -0.67879 -0.46543
-1.34707 -0.67900 -0.46648
-1.35106 -0.67968 -0.46750
-1.34989 -0.67776 -0.46691
-1.34786 -0.67541 -0.46603
-1.34672 -0.67352 -0.46528
-1.34896 -0.67332 -0.46587
-1.34778 -0.67141 -0.46529
-1.34745 -0.66992 -0.46499
-1.35054 -0.67014 -0.46588
-1.35363 -0.67035 -0.46677
-1.35245 -0.66844 -0.46618
-1.34954 -0.66568 -0.46500
-1.35092 -0.66504 -0.46530
-1.35230 -0.66440 -0.46560
-1.35196 -0.66292 -0.46531
-1.35329 -0.66226 -0.46577
-1.35896 -0.66371 -0.46755
-1.35948 -0.66264 -0.46755
-1.35399 -0.65865 -0.46548
-1.35193 -0.65633 -0.46460
-1.35502 -0.65652 -0.46549
-1.35721 -0.65626 -0.46625
-1.35600 -0.65436 -0.46566
-1.35652 -0.65330 -0.46566
-1.35789 -0.65265 -0.46596
-1.36094 -0.65280 -0.46702
-1.35977 -0.65092 -0.46626
-1.36028 -0.64985 -0.46627
-1.36252 -0.64961 -0.46686
-1.36475 -0.64936 -0.46746
-1.36353 -0.64747 -0.46687
-1.36409 -0.64642 -0.46670
-1.36373 -0.64494 -0.46641
-1.36337 -0.64346 -0.46612
-1.36387 -0.64238 -0.46612
-1.36438 -0.64131 -0.46613
-1.36488 -0.64024 -0.46613
-1.36711 -0.63998 -0.46672
-1.36766 -0.63892 -0.46656
-1.36643 -0.63704 -0.46597
-1.36520 -0.63516 -0.46539
-1.36569 -0.63409 -0.46539
-1.36966 -0.63462 -0.46657
-1.37276 -0.63475 -0.46746
-1.37065 -0.63247 -0.46658
-1.36941 -0.63059 -0.46599
-1.36990 -0.62952 -0.46600
-1.37387 -0.63003 -0.46718
-1.37523 -0.62935 -0.46748
-1.37307 -0.62706 -0.46676
-1.37183 -0.62519 -0.46617
-1.37227 -0.62409 -0.46634
-1.37363 -0.62340 -0.46664
-1.37499 -0.62272 -0.46694
-1.37282 -0.62044 -0.46622
-1.37161 -0.61859 -0.46547
-1.37296 -0.61791 -0.46576
-1.37606 -0.61800 -0.46665
-1.37655 -0.61692 -0.46666
-1.37790 -0.61622 -0.46695
-1.38018 -0.61594 -0.46738
-1.38062 -0.61483 -0.46755
-1.37853 -0.61260 -0.46650
-1.37639 -0.61036 -0.46562
-1.37687 -0.60927 -0.46562
-1.37734 -0.60819 -0.46563
-1.37782 -0.60711 -0.46563
-1.38092 -0.60718 -0.46652
-1.38490 -0.60762 -0.46770
-1.38717 -0.60732 -0.46813
-1.38589 -0.60546 -0.46754
-1.38632 -0.60435 -0.46771
-1.38680 -0.60326 -0.46772
-1.38639 -0.60179 -0.46742
-1.38424 -0.59956 -0.46654
-1.38466 -0.59845 -0.46671
-1.38601 -0.59774 -0.46701
-1.38735 -0.59703 -0.46730
-1.42751 -0.46893 -0.46544
-1.42607 -0.46721 -0.46485
-1.43329 -0.44466 -0.46475
-1.43547 -0.44409 -0.46535
-1.44860 -0.42323 -0.46781
-1.44623 -0.42130 -0.46676
-1.44564 -0.41989 -0.46646
-1.46521 -0.35745 -0.46759
-1.14019 -0.98194 -0.46519
-1.15400 -0.96266 -0.46466
-1.15480 -0.96178 -0.46450
-1.15775 -0.96271 -0.46538
-1.17189 -0.94525 -0.46577
-1.17189 -0.94373 -0.46548
-1.17486 -0.94461 -0.46637
-1.20101 -0.90799 -0.46573
-1.20172 -0.90705 -0.46573
-1.20167 -0.90553 -0.46544
-1.20161 -0.90401 -0.46514
-1.20080 -0.90192 -0.46456
-1.20070 -0.90037 -0.46443
-1.20450 -0.90175 -0.46545
-1.20521 -0.90080 -0.46545
-1.20434 -0.89868 -0.46503
-1.20505 -0.89774 -0.46503
-1.20729 -0.89793 -0.46563
-1.20948 -0.89809 -0.46638
-1.20942 -0.89657 -0.46609
-1.20782 -0.89392 -0.46521
-1.20545 -0.89070 -0.46403
-1.20614 -0.88975 -0.46403
-1.22065 -0.88129 -0.46597
-1.22211 -0.88088 -0.46627
-1.23491 -0.85939 -0.46591
-1.23637 -0.85896 -0.46621
-1.23866 -0.85910 -0.46664
-1.24381 -0.84822 -0.46608
-1.24290 -0.84616 -0.46549
-1.24278 -0.84464 -0.46520
-1.24577 -0.84524 -0.46625
-1.24802 -0.84533 -0.46685
-1.24711 -0.84327 -0.46626
-1.24539 -0.84069 -0.46537
-1.24839 -0.84127 -0.46643
-1.24905 -0.84029 -0.46643
-1.24734 -0.83771 -0.46554
-1.24720 -0.83619 -0.46525
-1.24945 -0.83627 -0.46585
-1.25408 -0.83793 -0.46733
-1.25399 -0.83644 -0.46687
-1.25146 -0.83333 -0.46569
-1.25132 -0.83182 -0.46540
-1.25357 -0.83189 -0.46599
-1.25502 -0.83142 -0.46629
-1.25492 -0.82993 -0.46583
-1.25713 -0.82997 -0.46659
-1.25782 -0.82900 -0.46643
-1.25684 -0.82693 -0.46601
-1.25749 -0.82594 -0.46601
-1.25894 -0.82547 -0.46631
-1.26039 -0.82500 -0.46661
-1.26104 -0.82400 -0.46661
-1.26089 -0.82249 -0.46632
-1.25833 -0.81941 -0.46514
-1.25738 -0.81737 -0.46455
-1.26042 -0.81794 -0.46544
-1.26343 -0.81847 -0.46649
-1.26247 -0.81644 -0.46591
-1.26231 -0.81493 -0.46561
-1.26456 -0.81496 -0.46621
-1.26596 -0.81446 -0.46667
-1.26419 -0.81191 -0.46579
-1.26487 -0.81094 -0.46563
-1.26788 -0.81146 -0.46668
-1.26776 -0.80997 -0.46622
-1.26679 -0.80794 -0.46563
-1.26742 -0.80694 -0.46564
-1.26806 -0.80594 -0.46564
-1.27111 -0.80647 -0.46653
-1.27175 -0.80547 -0.46653
-1.26915 -0.80242 -0.46535
-1.26902 -0.80094 -0.46490
-1.27369 -0.80248 -0.46638
-1.27432 -0.80148 -0.46638
-1.27172 -0.79844 -0.46520
-1.27316 -0.79794 -0.46550
-1.27626 -0.79849 -0.46623
-1.27684 -0.79745 -0.46639
-1.27504 -0.79493 -0.46551
-1.27571 -0.79395 -0.46535
-1.27629 -0.79291 -0.46552
-1.27696 -0.79193 -0.46536
-1.27835 -0.79140 -0.46582
-1.27978 -0.79089 -0.46612
-1.27878 -0.78888 -0.46553
-1.27940 -0.78787 -0.46553
-1.28242 -0.78834 -0.46659
-1.28304 -0.78732 -0.46659
-1.28285 -0.78581 -0.46630
-1.28261 -0.78427 -0.46617
-1.28485 -0.78426 -0.46676
-1.28552 -0.78327 -0.46660
-1.28532 -0.78176 -0.46631
-1.28670 -0.78121 -0.46677
-1.28487 -0.77871 -0.46588
-1.28634 -0.77822 -0.46602
-1.28859 -0.77819 -0.46662
-1.28925 -0.77720 -0.46646
-1.28736 -0.77468 -0.46573
-1.28715 -0.77317 -0.46544
-1.28858 -0.77265 -0.46574
-1.29001 -0.77212 -0.46604
-1.29225 -0.77208 -0.46663
-1.29291 -0.77109 -0.46647
-1.29105 -0.76860 -0.46559
-1.29083 -0.76709 -0.46530
-1.29226 -0.76656 -0.46559
-1.29286 -0.76554 -0.46560
-1.29511 -0.76549 -0.46619
-1.29567 -0.76444 -0.46636
-1.29463 -0.76245 -0.46577
-1.29687 -0.76240 -0.46636
-1.29830 -0.76186 -0.46666
-1.29725 -0.75987 -0.46608
-1.29620 -0.75788 -0.46548
-1.29679 -0.75686 -0.46549
-1.30065 -0.75773 -0.46684
-1.30124 -0.75670 -0.46684
-1.29936 -0.75424 -0.46596
-1.29748 -0.75178 -0.46507
-1.29889 -0.75123 -0.46537
-1.30362 -0.75259 -0.46686
-1.30582 -0.75249 -0.46762
-1.30232 -0.74911 -0.46597
-1.29877 -0.74570 -0.46449
-1.30019 -0.74515 -0.46479
-1.30575 -0.74697 -0.46657
-1.30472 -0.74501 -0.46582
-1.30199 -0.74209 -0.46464
-1.30257 -0.74107 -0.46464
-1.30901 -0.74337 -0.46655
-1.31288 -0.74419 -0.46791
-1.31014 -0.74127 -0.46672
-1.30577 -0.73745 -0.46479
-1.30552 -0.73594 -0.46449
-1.30860 -0.73632 -0.46538
-1.31251 -0.73716 -0.46657
-1.31309 -0.73612 -0.46658
-1.31284 -0.73462 -0.46628
-1.31342 -0.73358 -0.46629
-1.31395 -0.73252 -0.46645
-1.31202 -0.73009 -0.46557
-1.31427 -0.72998 -0.46616
-1.31647 -0.72985 -0.46692
-1.31453 -0.72742 -0.46603
-1.31343 -0.72546 -0.46545
-1.31651 -0.72581 -0.46634
-1.31792 -0.72523 -0.46664
-1.31598 -0.72281 -0.46575
-1.31655 -0.72177 -0.46575
-1.31879 -0.72165 -0.46635
-1.31936 -0.72061 -0.46635
-1.31909 -0.71911 -0.46606
-1.32134 -0.71898 -0.46665
-1.32442 -0.71930 -0.46755
-1.32335 -0.71737 -0.46679
-1.32392 -0.71633 -0.46680
-1.32448 -0.71528 -0.46680
-1.32252 -0.71288 -0.46591
-1.32224 -0.71138 -0.46562
-1.32364 -0.71079 -0.46592
-1.32677 -0.71113 -0.46665
-1.32564 -0.70919 -0.46606
-1.32531 -0.70767 -0.46593
-1.32671 -0.70708 -0.46623
-1.32557 -0.70514 -0.46564
-1.32439 -0.70318 -0.46521
-1.32579 -0.70258 -0.46551
-1.32465 -0.70065 -0.46492
-1.32858 -0.70139 -0.46611
-1.33340 -0.70260 -0.46743
-1.33221 -0.70064 -0.46701
-1.33107 -0.69870 -0.46642
-1.33331 -0.69854 -0.46701
-1.33381 -0.69747 -0.46718
-1.33097 -0.69465 -0.46600
-1.33236 -0.69405 -0.46630
-1.33545 -0.69432 -0.46719
-1.33425 -0.69237 -0.46676
-1.33395 -0.69088 -0.46647
-1.33708 -0.69117 -0.46720
-1.33847 -0.69056 -0.46750
-1.33816 -0.68907 -0.46720
-1.33785 -0.68758 -0.46691
-1.33844 -0.68656 -0.46675
-1.33898 -0.68550 -0.46675
-1.33781 -0.68358 -0.46616
-1.33754 -0.68212 -0.46570
-1.33893 -0.68150 -0.46600
-1.33946 -0.68045 -0.46601
-1.33995 -0.67937 -0.46617
-1.34048 -0.67832 -0.46618
-1.34191 -0.67772 -0.46631
-1.33988 -0.67537 -0.46543
-1.33956 -0.67389 -0.46513
-1.34269 -0.67415 -0.46586
-1.34147 -0.67222 -0.46543
-1.34200 -0.67116 -0.46544
-1.34423 -0.67096 -0.46603
-1.34561 -0.67033 -0.46633
-1.34438 -0.66840 -0.46591
-1.34405 -0.66692 -0.46561
-1.34372 -0.66544 -0.46532
-1.34509 -0.66480 -0.46562
-1.34904 -0.66544 -0.46681
-1.35037 -0.66478 -0.46727
-1.34661 -0.66161 -0.46579
-1.34713 -0.66055 -0.46580
-1.35365 -0.66243 -0.46787
-1.35503 -0.66178 -0.46817
-1.35039 -0.65821 -0.46640
-1.35091 -0.65715 -0.46640
-1.35400 -0.65734 -0.46729
-1.35370 -0.65588 -0.46683
-1.34906 -0.65232 -0.46506
-1.34957 -0.65126 -0.46506
-1.35352 -0.65186 -0.46625
-1.35834 -0.65286 -0.46774
-1.36057 -0.65262 -0.46833
-1.35333 -0.64784 -0.46567
-1.35211 -0.64595 -0.46508
-1.35434 -0.64571 -0.46567
-1.35657 -0.64547 -0.46627
-1.36027 -0.64199 -0.46704
-1.40904 -0.51770 -0.46665
-1.40138 -0.51363 -0.46398
-1.40089 -0.51220 -0.46369
-1.41514 -0.49224 -0.46566
-1.41372 -0.49049 -0.46507
-1.41501 -0.48969 -0.46537
-1.42661 -0.46988 -0.46724
-1.42063 -0.46667 -0.46516
-1.42105 -0.46557 -0.46501
-1.44703 -0.36514 -0.46447
-1.15431 -0.96291 -0.46675
-1.15510 -0.96203 -0.46659
-1.15585 -0.96113 -0.46660
-1.17158 -0.94500 -0.46708
-1.16703 -0.93982 -0.46534
-1.16781 -0.93893 -0.46518
-1.17521 -0.94337 -0.46801
-1.19527 -0.90366 -0.46529
-1.19369 -0.90099 -0.46440
-1.19211 -0.89833 -0.46352
-1.19434 -0.89854 -0.46411
-1.19814 -0.89993 -0.46514
-1.19885 -0.89898 -0.46514
-1.19955 -0.89804 -0.46515
-1.20025 -0.89710 -0.46515
-1.20096 -0.89616 -0.46515
-1.20166 -0.89521 -0.46515
-1.20010 -0.89259 -0.46410
-1.20149 -0.89215 -0.46473
-1.20530 -0.89351 -0.46576
-1.20753 -0.89370 -0.46635
-1.20512 -0.89045 -0.46533
-1.20424 -0.88834 -0.46491
-1.20421 -0.88686 -0.46445
-1.23136 -0.85691 -0.46636
-1.23204 -0.85594 -0.46636
-1.24634 -0.83846 -0.46685
-1.24541 -0.83642 -0.46626
-1.24528 -0.83490 -0.46597
-1.24673 -0.83445 -0.46627
-1.24897 -0.83452 -0.46686
-1.25604 -0.81509 -0.46543
-1.25908 -0.81566 -0.46632
-1.25816 -0.81365 -0.46557
-1.25716 -0.81160 -0.46514
-1.25860 -0.81112 -0.46544
-1.26325 -0.81271 -0.46693
-1.26819 -0.79762 -0.46611
-1.26886 -0.79665 -0.46595
-1.26949 -0.79565 -0.46595
-1.27011 -0.79464 -0.46595
-1.27236 -0.79465 -0.46655
-1.27380 -0.79415 -0.46685
-1.27199 -0.79163 -0.46596
-1.27261 -0.79063 -0.46597
-1.27328 -0.78965 -0.46581
-1.27552 -0.78965 -0.46640
-1.27456 -0.78767 -0.46565
-1.27518 -0.78666 -0.46565
-1.27739 -0.78663 -0.46641
-1.27968 -0.78665 -0.46684
-1.27948 -0.78514 -0.46655
-1.28010 -0.78413 -0.46655
-1.28170 -0.77956 -0.46643
-1.28640 -0.78103 -0.46792
-1.28534 -0.77899 -0.46749
-1.28268 -0.77600 -0.46631
-1.28248 -0.77450 -0.46601
-1.28309 -0.77348 -0.46602
-1.28529 -0.77343 -0.46678
-1.28676 -0.77293 -0.46691
-1.28655 -0.77143 -0.46662
-1.28470 -0.76894 -0.46573
-1.28448 -0.76744 -0.46544
-1.28755 -0.76789 -0.46633
-1.29061 -0.76834 -0.46723
-1.29040 -0.76683 -0.46693
-1.29182 -0.76630 -0.46723
-1.29489 -0.76674 -0.46813
-1.29303 -0.76426 -0.46724
-1.28952 -0.76082 -0.46575
-1.29094 -0.76028 -0.46605
-1.29405 -0.76074 -0.46679
-1.29383 -0.75923 -0.46649
-1.29438 -0.75819 -0.46666
-1.29663 -0.75813 -0.46725
-1.29644 -0.75665 -0.46680
-1.29287 -0.75320 -0.46548
-1.29429 -0.75266 -0.46578
-1.29905 -0.75406 -0.46710
-1.29878 -0.75253 -0.46697
-1.29937 -0.75150 -0.46698
-1.29913 -0.75000 -0.46668
-1.29802 -0.74800 -0.46625
-1.29861 -0.74697 -0.46626
-1.29672 -0.74452 -0.46537
-1.29565 -0.74255 -0.46478
-1.29789 -0.74247 -0.46537
-1.30096 -0.74287 -0.46627
-1.30067 -0.74135 -0.46614
-1.29877 -0.73890 -0.46525
-1.30022 -0.73837 -0.46539
-1.30657 -0.74062 -0.46763
-1.30799 -0.74006 -0.46793
-1.30753 -0.73708 -0.46718
-1.30894 -0.73651 -0.46748
-1.31192 -0.73139 -0.46717
-1.30916 -0.72850 -0.46598
-1.30974 -0.72747 -0.46599
-1.30864 -0.72551 -0.46540
-1.30837 -0.72401 -0.46510
-1.31062 -0.72390 -0.46570
-1.31453 -0.72471 -0.46689
-1.31510 -0.72367 -0.46689
-1.31232 -0.72080 -0.46571
-1.31205 -0.71930 -0.46542
-1.31482 -0.71812 -0.46618
-1.31785 -0.71843 -0.46724
-1.31591 -0.71200 -0.46576
-1.32490 -0.70746 -0.46740
-1.32457 -0.70594 -0.46727
-1.32601 -0.70537 -0.46741
-1.32656 -0.70433 -0.46741
-1.32712 -0.70329 -0.46741
-1.32682 -0.70180 -0.46712
-1.32757 -0.69421 -0.46625
-1.33146 -0.69491 -0.46760
-1.33279 -0.67970 -0.46602
-1.33417 -0.67908 -0.46632
-1.33471 -0.67803 -0.46632
-1.33439 -0.67655 -0.46603
-1.34351 -0.65616 -0.46562
-1.34483 -0.65550 -0.46609
-1.34706 -0.65528 -0.46668
-1.38238 -0.56167 -0.46532
-1.38454 -0.56128 -0.46608
-1.39145 -0.53624 -0.46492
-1.40100 -0.51349 -0.46529
-1.40499 -0.51370 -0.46648
-1.40714 -0.51323 -0.46724
-1.41371 -0.49174 -0.46716
-1.41500 -0.49094 -0.46746
-1.41538 -0.48982 -0.46747
-1.42419 -0.46660 -0.46783
-1.45297 -0.36664 -0.46835
-1.45048 -0.36479 -0.46746
-1.15310 -0.96191 -0.46842
-1.16363 -0.93859 -0.46624
-1.16437 -0.93767 -0.46624
-1.17890 -0.91775 -0.46601
-1.17962 -0.91682 -0.46601
-1.17883 -0.91472 -0.46542
-1.19084 -0.89884 -0.46579
-1.19235 -0.89851 -0.46593
-1.19225 -0.89697 -0.46580
-1.19223 -0.89549 -0.46534
-1.19369 -0.89512 -0.46564
-1.19440 -0.89418 -0.46564
-1.19437 -0.89270 -0.46519
-1.19584 -0.89234 -0.46549
-1.19883 -0.89311 -0.46638
-1.19953 -0.89216 -0.46639
-1.19870 -0.89008 -0.46579
-1.19940 -0.88914 -0.46580
-1.20010 -0.88820 -0.46580
-1.20006 -0.88672 -0.46534
-1.19841 -0.88405 -0.46462
-1.19992 -0.88370 -0.46475
-1.24257 -0.83451 -0.46716
-1.24160 -0.83243 -0.46674
-1.25456 -0.81273 -0.46680
-1.25676 -0.81275 -0.46756
-1.25660 -0.81124 -0.46726
-1.26590 -0.78923 -0.46645
-1.26814 -0.78924 -0.46705
-1.26962 -0.78877 -0.46719
-1.27784 -0.76620 -0.46560
-1.28004 -0.76615 -0.46636
-1.28310 -0.76661 -0.46726
-1.28452 -0.76608 -0.46756
-1.29360 -0.74681 -0.46702
-1.29336 -0.74531 -0.46672
-1.29229 -0.74334 -0.46613
-1.29039 -0.74089 -0.46524
-1.30547 -0.72375 -0.46695
-1.30358 -0.72136 -0.46589
-1.30247 -0.71940 -0.46530
-1.31695 -0.70056 -0.46671
-1.31413 -0.69773 -0.46552
-1.31384 -0.69625 -0.46523
-1.32625 -0.67636 -0.46605
-1.32678 -0.67532 -0.46605
-1.32816 -0.67471 -0.46635
-1.33901 -0.65527 -0.46638
-1.33781 -0.65338 -0.46579
-1.33489 -0.65065 -0.46459
-1.35175 -0.63279 -0.46737
-1.35057 -0.63094 -0.46661
-1.35020 -0.62948 -0.46632
-1.35942 -0.60667 -0.46641
-1.36076 -0.60599 -0.46671
-1.36881 -0.58268 -0.46617
-1.36927 -0.58160 -0.46617
-1.37823 -0.55999 -0.46623
-1.37872 -0.55892 -0.46608
-1.38176 -0.55889 -0.46714
-1.39041 -0.53710 -0.46703
-1.39172 -0.53635 -0.46734
-1.39849 -0.51257 -0.46713
-1.42721 -0.41210 -0.46636
-1.42845 -0.41124 -0.46666
-1.43777 -0.38825 -0.46776
-1.15803 -0.93407 -0.46577
-1.16025 -0.93436 -0.46637
-1.17541 -0.91355 -0.46630
-1.19034 -0.89699 -0.46728
-1.19184 -0.89666 -0.46742
-1.18945 -0.89340 -0.46639
-1.18786 -0.89075 -0.46550
-1.19013 -0.89099 -0.46594
-1.19159 -0.89062 -0.46624
-1.19152 -0.88912 -0.46594
-1.19073 -0.88707 -0.46519
-1.19143 -0.88614 -0.46519
-1.19212 -0.88520 -0.46519
-1.19512 -0.88597 -0.46609
-1.19734 -0.88616 -0.46669
-1.19650 -0.88409 -0.46610
-1.19643 -0.88258 -0.46580
-1.19558 -0.88051 -0.46521
-1.19627 -0.87957 -0.46521
-1.20098 -0.87142 -0.46510
-1.20243 -0.87103 -0.46540
-1.20463 -0.87117 -0.46616
-1.26366 -0.78645 -0.46718
-1.27822 -0.76643 -0.46752
-1.27964 -0.76592 -0.46782
-1.28879 -0.74267 -0.46685
-1.29808 -0.71832 -0.46588
-1.29864 -0.71729 -0.46588
-1.31111 -0.69612 -0.46641
-1.31166 -0.69509 -0.46641
-1.32325 -0.67483 -0.46677
-1.32463 -0.67422 -0.46707
-1.32600 -0.67361 -0.46737
-1.33650 -0.65273 -0.46711
-1.33701 -0.65168 -0.46711
-1.34319 -0.62749 -0.46584
-1.34018 -0.62481 -0.46480
-1.35198 -0.60335 -0.46563
-1.35420 -0.60307 -0.46623
-1.37190 -0.58400 -0.46883
-1.41309 -0.43473 -0.46548
-1.40979 -0.43250 -0.46429
-1.41013 -0.43138 -0.46429
-1.42489 -0.41143 -0.46737
-1.42521 -0.41030 -0.46738
-1.13540 -0.95472 -0.46628
-1.13541 -0.95321 -0.46598
-1.13689 -0.95293 -0.46629
-1.18163 -0.89043 -0.46528
-1.18385 -0.89065 -0.46589
-1.18302 -0.88857 -0.46529
-1.18525 -0.88879 -0.46589
-1.18671 -0.88843 -0.46620
-1.18664 -0.88692 -0.46590
-1.18738 -0.88602 -0.46574
-1.18731 -0.88452 -0.46544
-1.18570 -0.88188 -0.46455
-1.18486 -0.87981 -0.46395
-1.18708 -0.88001 -0.46455
-1.19084 -0.88135 -0.46575
-1.19311 -0.88158 -0.46620
-1.19453 -0.88118 -0.46666
-1.19522 -0.88024 -0.46666
-1.19356 -0.87757 -0.46593
-1.19194 -0.87494 -0.46503
-1.20365 -0.87336 -0.46791
-1.20202 -0.87073 -0.46702
-1.20194 -0.86922 -0.46672
-1.21162 -0.84744 -0.46512
-1.21463 -0.84812 -0.46602
-1.22533 -0.82574 -0.46488
-1.22678 -0.82530 -0.46518
-1.29795 -0.71958 -0.46763
-1.30268 -0.72086 -0.46914
-1.31822 -0.67096 -0.46659
-1.39102 -0.47893 -0.46534
-1.39612 -0.45496 -0.46418
-1.39824 -0.45443 -0.46495
-1.40223 -0.45450 -0.46615
-1.41564 -0.43429 -0.46816
-1.41233 -0.43206 -0.46696
-1.12782 -0.94835 -0.46441
-1.13149 -0.94992 -0.46561
-1.13516 -0.95148 -0.46682
-1.18519 -0.89312 -0.46775
-1.18056 -0.88817 -0.46565
-1.17668 -0.88381 -0.46385
-1.18042 -0.88517 -0.46506
-1.18570 -0.88767 -0.46686
-1.18644 -0.88677 -0.46670
-1.18331 -0.88299 -0.46520
-1.18243 -0.88089 -0.46477
-1.18465 -0.88110 -0.46537
-1.18611 -0.88073 -0.46568
-1.18680 -0.87980 -0.46568
-1.18672 -0.87830 -0.46538
-1.18890 -0.87847 -0.46615
-1.19190 -0.87924 -0.46705
-1.19028 -0.87660 -0.46615
-1.18713 -0.87284 -0.46465
-1.19809 -0.87077 -0.46708
-1.19646 -0.86814 -0.46618
-1.19637 -0.86664 -0.46588
-1.20905 -0.84707 -0.46580
-1.20894 -0.84557 -0.46550
-1.21191 -0.84622 -0.46657
-1.22220 -0.82643 -0.46524
-1.21969 -0.82333 -0.46404
-1.22029 -0.82234 -0.46420
-1.23773 -0.80460 -0.46577
-1.38556 -0.50535 -0.46696
-1.39012 -0.48108 -0.46582
-1.39045 -0.47996 -0.46598
-1.39083 -0.47886 -0.46598
-1.39633 -0.45625 -0.46560
-1.39488 -0.45455 -0.46500
-1.39891 -0.45465 -0.46605
-1.40983 -0.43251 -0.46748
-1.12764 -0.94669 -0.46491
-1.13058 -0.94764 -0.46582
-1.14230 -0.92732 -0.46483
-1.14303 -0.92642 -0.46483
-1.14672 -0.92792 -0.46604
-1.17962 -0.88892 -0.46662
-1.17574 -0.88455 -0.46481
-1.17872 -0.88534 -0.46572
-1.18171 -0.88613 -0.46662
-1.18088 -0.88406 -0.46602
-1.17851 -0.88085 -0.46482
-1.18069 -0.88103 -0.46559
-1.18219 -0.88071 -0.46573
-1.18050 -0.87801 -0.46515
-1.18119 -0.87708 -0.46515
-1.18498 -0.87845 -0.46620
-1.18644 -0.87809 -0.46651
-1.18555 -0.87599 -0.46607
-1.18624 -0.87506 -0.46607
-1.18846 -0.87526 -0.46668
-1.18761 -0.87320 -0.46608
-1.18449 -0.86947 -0.46441
-1.18363 -0.86742 -0.46381
-1.19398 -0.86778 -0.46654
-1.19544 -0.86740 -0.46684
-1.19925 -0.86872 -0.46789
-1.21271 -0.84963 -0.46827
-1.21182 -0.84758 -0.46767
-1.22172 -0.82471 -0.46623
-1.22158 -0.82321 -0.46593
-1.23583 -0.80337 -0.46629
-1.23407 -0.80084 -0.46539
-1.23310 -0.79883 -0.46479
-1.24780 -0.77932 -0.46530
-1.24842 -0.77833 -0.46530
-1.25863 -0.75604 -0.46462
-1.36207 -0.54968 -0.46615
-1.36828 -0.52608 -0.46530
-1.36869 -0.52500 -0.46530
-1.37632 -0.50198 -0.46490
-1.37666 -0.50088 -0.46507
-1.37975 -0.50077 -0.46598
-1.39291 -0.48081 -0.46769
-1.39329 -0.47971 -0.46769
-1.39463 -0.45448 -0.46580
-1.42233 -0.35413 -0.46585
-1.42076 -0.35255 -0.46524
-1.14066 -0.92599 -0.46487
-1.14213 -0.92570 -0.46518
-1.14582 -0.92720 -0.46638
-1.17324 -0.88411 -0.46533
-1.17546 -0.88434 -0.46593
-1.17611 -0.88338 -0.46610
-1.17608 -0.88192 -0.46564
-1.17525 -0.87985 -0.46504
-1.17594 -0.87892 -0.46504
-1.17892 -0.87971 -0.46595
-1.18037 -0.87935 -0.46625
-1.17877 -0.87672 -0.46535
-1.17869 -0.87523 -0.46505
-1.17942 -0.87433 -0.46489
-1.18236 -0.87507 -0.46596
-1.18305 -0.87414 -0.46597
-1.18224 -0.87211 -0.46520
-1.18215 -0.87062 -0.46491
-1.18360 -0.87025 -0.46521
-1.18429 -0.86932 -0.46521
-1.19442 -0.86666 -0.46751
-1.21928 -0.82446 -0.46642
-1.22151 -0.82456 -0.46703
-1.22295 -0.82413 -0.46734
-1.23251 -0.80259 -0.46651
-1.23318 -0.80164 -0.46635
-1.23301 -0.80015 -0.46605
-1.24451 -0.77862 -0.46535
-1.24674 -0.77865 -0.46596
-1.25781 -0.75690 -0.46541
-1.25841 -0.75591 -0.46542
-1.25896 -0.75489 -0.46558
-1.27128 -0.73392 -0.46564
-1.28376 -0.71171 -0.46586
-1.34560 -0.57155 -0.46460
-1.34692 -0.57086 -0.46491
-1.36018 -0.55141 -0.46632
-1.36057 -0.55032 -0.46648
-1.36281 -0.54998 -0.46693
-1.36809 -0.52600 -0.46594
-1.36939 -0.52527 -0.46625
-1.37158 -0.52487 -0.46686
-1.38046 -0.50349 -0.46754
-1.38444 -0.50371 -0.46875
-1.41384 -0.37820 -0.46618
-1.41322 -0.37683 -0.46588
-1.41627 -0.37645 -0.46679
-1.42028 -0.35363 -0.46588
-1.41959 -0.35226 -0.46574
-1.14180 -0.92840 -0.46722
-1.14253 -0.92751 -0.46722
-1.14174 -0.92538 -0.46678
-1.15319 -0.90503 -0.46531
-1.15540 -0.90530 -0.46591
-1.16480 -0.88206 -0.46402
-1.16777 -0.88287 -0.46493
-1.17137 -0.88126 -0.46554
-1.17053 -0.87919 -0.46494
-1.17275 -0.87941 -0.46555
-1.17420 -0.87906 -0.46585
-1.17565 -0.87871 -0.46616
-1.17634 -0.87779 -0.46616
-1.17703 -0.87686 -0.46616
-1.17619 -0.87480 -0.46556
-1.17530 -0.87271 -0.46512
-1.17446 -0.87065 -0.46452
-1.17667 -0.87086 -0.46513
-1.17961 -0.87161 -0.46620
-1.17804 -0.86901 -0.46513
-1.17872 -0.86809 -0.46513
-1.18247 -0.86942 -0.46635
-1.18465 -0.86959 -0.46712
-1.18298 -0.86694 -0.46637
-1.23288 -0.80145 -0.46747
-1.23111 -0.79892 -0.46657
-1.24412 -0.77838 -0.46679
-1.24392 -0.77689 -0.46649
-1.25841 -0.75861 -0.46762
-1.25407 -0.75465 -0.46596
-1.25303 -0.75267 -0.46536
-1.27282 -0.73615 -0.46783
-1.27092 -0.73372 -0.46692
-1.26815 -0.73078 -0.46587
-1.27784 -0.70975 -0.46532
-1.27595 -0.70738 -0.46426
-1.28737 -0.68612 -0.46464
-1.28959 -0.68600 -0.46525
-1.29270 -0.68635 -0.46600
-1.30123 -0.66360 -0.46531
-1.30260 -0.66301 -0.46562
-1.31037 -0.63870 -0.46463
-1.31088 -0.63767 -0.46463
-1.32820 -0.61922 -0.46680
-1.32782 -0.61777 -0.46650
-1.33342 -0.59381 -0.46520
-1.33127 -0.59160 -0.46429
-1.34606 -0.57174 -0.46634
-1.34212 -0.56882 -0.46482
-1.34432 -0.56851 -0.46543
-1.35745 -0.54905 -0.46717
-1.35695 -0.54761 -0.46703
-1.36583 -0.52514 -0.46693
-1.36629 -0.52408 -0.46677
-1.40064 -0.39964 -0.46513
-1.40187 -0.39880 -0.46544
-1.41379 -0.37699 -0.46730
-1.41409 -0.37587 -0.46730
-1.15433 -0.90592 -0.46735
-1.16372 -0.88124 -0.46499
-1.16745 -0.88262 -0.46620
-1.16814 -0.88170 -0.46621
-1.17028 -0.88044 -0.46652
-1.17021 -0.87895 -0.46621
-1.17090 -0.87803 -0.46622
-1.17082 -0.87654 -0.46592
-1.17071 -0.87502 -0.46578
-1.17063 -0.87353 -0.46548
-1.17208 -0.87318 -0.46578
-1.17200 -0.87169 -0.46548
-1.17268 -0.87076 -0.46548
-1.17413 -0.87041 -0.46579
-1.17638 -0.87065 -0.46624
-1.17630 -0.86916 -0.46594
-1.17698 -0.86824 -0.46594
-1.17770 -0.86734 -0.46579
-1.17838 -0.86642 -0.46579
-1.17753 -0.86436 -0.46519
-1.17820 -0.86344 -0.46519
-1.18042 -0.86363 -0.46580
-1.18187 -0.86326 -0.46610
-1.18178 -0.86177 -0.46581
-1.25738 -0.75799 -0.46811
-1.25390 -0.75454 -0.46660
-1.25204 -0.75208 -0.46569
-1.26674 -0.73263 -0.46682
-1.26484 -0.73020 -0.46591
-1.27915 -0.71048 -0.46720
-1.27971 -0.70947 -0.46721
-1.27944 -0.70800 -0.46691
-1.29135 -0.68824 -0.46695
-1.29021 -0.68633 -0.46635
-1.28822 -0.68397 -0.46544
-1.30303 -0.66581 -0.46702
-1.30266 -0.66433 -0.46687
-1.30318 -0.66331 -0.46688
-1.30459 -0.66274 -0.46702
-1.31302 -0.64127 -0.46679
-1.31353 -0.64024 -0.46680
-1.32557 -0.61926 -0.46763
-1.32692 -0.61862 -0.46793
-1.33135 -0.59289 -0.46571
-1.34407 -0.57090 -0.46653
-1.34364 -0.56947 -0.46622
-1.35633 -0.54860 -0.46766
-1.35587 -0.54718 -0.46736
-1.38861 -0.42241 -0.46465
-1.38986 -0.42159 -0.46496
-1.40024 -0.39953 -0.46640
-1.40051 -0.39841 -0.46656
-1.16494 -0.88360 -0.46733
-1.16563 -0.88269 -0.46733
-1.16484 -0.88065 -0.46657
-1.16379 -0.87413 -0.46506
-1.16600 -0.87435 -0.46567
-1.16520 -0.87233 -0.46490
-1.16432 -0.87024 -0.46446
-1.16580 -0.86992 -0.46460
-1.16801 -0.87015 -0.46522
-1.16942 -0.86977 -0.46568
-1.17240 -0.87055 -0.46660
-1.17308 -0.86963 -0.46660
-1.17146 -0.86701 -0.46569
-1.17061 -0.86496 -0.46509
-1.17125 -0.86401 -0.46525
-1.17269 -0.86365 -0.46555
-1.17260 -0.86216 -0.46525
-1.17481 -0.86237 -0.46586
-1.17779 -0.86314 -0.46678
-1.17617 -0.86052 -0.46587
-1.17454 -0.85791 -0.46496
-1.17521 -0.85698 -0.46496
-1.19157 -0.83903 -0.46594
-1.19219 -0.83806 -0.46610
-1.25178 -0.75327 -0.46774
-1.25156 -0.75179 -0.46744
-1.26770 -0.73185 -0.46872
-1.27385 -0.70753 -0.46649
-1.27695 -0.70794 -0.46725
-1.29006 -0.68755 -0.46824
-1.29060 -0.68653 -0.46824
-1.29792 -0.66191 -0.46710
-1.29929 -0.66132 -0.46741
-1.30838 -0.63900 -0.46654
-1.38333 -0.44717 -0.46709
-1.38282 -0.44580 -0.46663
-1.39326 -0.42502 -0.46807
-1.39091 -0.42311 -0.46700
-1.38755 -0.42089 -0.46593
-1.40356 -0.40048 -0.46874
-1.40388 -0.39937 -0.46874
-1.10781 -0.93898 -0.46551
-1.10709 -0.93688 -0.46490
-1.11074 -0.93846 -0.46612
-1.12306 -0.91757 -0.46512
-1.16102 -0.87204 -0.46604
-1.16018 -0.86999 -0.46543
-1.16086 -0.86908 -0.46544
-1.16463 -0.87048 -0.46650
-1.16761 -0.87127 -0.46742
-1.16676 -0.86921 -0.46681
-1.16358 -0.86543 -0.46545
-1.16503 -0.86508 -0.46576
-1.16957 -0.86703 -0.46713
-1.16948 -0.86554 -0.46683
-1.16633 -0.86179 -0.46530
-1.16471 -0.85918 -0.46439
-1.16534 -0.85824 -0.46455
-1.16832 -0.85901 -0.46547
-1.17052 -0.85922 -0.46608
-1.17197 -0.85886 -0.46639
-1.17183 -0.85735 -0.46625
-1.17174 -0.85586 -0.46594
-1.17322 -0.85553 -0.46609
-1.17544 -0.85572 -0.46671
-1.18337 -0.83325 -0.46447
-1.18714 -0.83451 -0.46570
-1.19247 -0.83685 -0.46753
-1.20074 -0.81469 -0.46591
-1.20375 -0.81534 -0.46683
-1.20124 -0.81226 -0.46561
-1.21283 -0.79114 -0.46538
-1.37413 -0.44300 -0.46561
-1.37720 -0.44279 -0.46653
-1.40531 -0.34284 -0.46687
-1.10960 -0.94050 -0.46801
-1.11107 -0.94024 -0.46832
-1.12127 -0.91904 -0.46654
-1.12199 -0.91816 -0.46654
-1.12271 -0.91728 -0.46654
-1.15905 -0.86914 -0.46655
-1.16050 -0.86880 -0.46686
-1.15965 -0.86675 -0.46625
-1.16033 -0.86584 -0.46625
-1.16254 -0.86607 -0.46687
-1.16326 -0.86518 -0.46671
-1.16164 -0.86257 -0.46580
-1.16002 -0.85995 -0.46488
-1.16070 -0.85904 -0.46488
-1.16214 -0.85869 -0.46519
-1.16358 -0.85835 -0.46550
-1.16502 -0.85800 -0.46581
-1.16569 -0.85708 -0.46581
-1.16252 -0.85335 -0.46428
-1.16626 -0.85469 -0.46551
-1.16770 -0.85433 -0.46582
-1.16680 -0.85225 -0.46537
-1.16901 -0.85245 -0.46599
-1.18762 -0.83625 -0.46789
-1.19721 -0.81229 -0.46611
-1.19785 -0.81135 -0.46611
-1.20086 -0.81200 -0.46704
-1.21107 -0.79136 -0.46633
-1.21085 -0.78985 -0.46619
-1.21471 -0.79100 -0.46726
-1.22698 -0.77170 -0.46747
-1.22517 -0.76921 -0.46656
-1.22654 -0.76872 -0.46703
-1.22795 -0.76826 -0.46734
-1.23514 -0.74591 -0.46508
-1.23410 -0.74395 -0.46447
-1.32641 -0.56217 -0.46562
-1.32505 -0.56036 -0.46516
-1.33327 -0.53806 -0.46476
-1.33369 -0.53701 -0.46476
-1.33672 -0.53700 -0.46584
-1.34726 -0.51556 -0.46621
-1.34588 -0.51382 -0.46559
-1.34895 -0.51378 -0.46652
-1.36034 -0.49373 -0.46812
-1.36078 -0.49267 -0.46797
-1.35759 -0.49030 -0.46674
-1.39290 -0.36671 -0.46642
-1.39232 -0.36539 -0.46596
-1.39895 -0.34246 -0.46675
-1.39927 -0.34137 -0.46660
-1.11938 -0.91603 -0.46720
-1.13270 -0.89471 -0.46665
-1.13340 -0.89382 -0.46666
-1.14574 -0.87330 -0.46564
-1.14563 -0.87179 -0.46549
-1.15332 -0.86484 -0.46597
-1.15247 -0.86280 -0.46536
-1.15315 -0.86189 -0.46536
-1.15459 -0.86155 -0.46568
-1.15755 -0.86235 -0.46660
-1.15827 -0.86147 -0.46645
-1.15741 -0.85943 -0.46583
-1.15656 -0.85738 -0.46522
-1.15647 -0.85591 -0.46492
-1.15867 -0.85613 -0.46554
-1.16010 -0.85579 -0.46585
-1.16227 -0.85597 -0.46662
-1.16294 -0.85506 -0.46663
-1.16361 -0.85415 -0.46663
-1.16274 -0.85211 -0.46602
-1.16265 -0.85063 -0.46571
-1.16255 -0.84915 -0.46541
-1.16317 -0.84820 -0.46557
-1.20582 -0.78793 -0.46622
-1.20804 -0.78801 -0.46684
-1.21930 -0.76687 -0.46628
-1.22232 -0.76743 -0.46721
-1.22212 -0.76596 -0.46690
-1.23326 -0.74610 -0.46650
-1.23299 -0.74461 -0.46635
-1.23362 -0.74367 -0.46620
-1.24385 -0.72071 -0.46533
-1.24689 -0.72115 -0.46626
-1.26022 -0.70127 -0.46725
-1.25911 -0.69935 -0.46664
-1.25721 -0.69700 -0.46556
-1.26846 -0.67604 -0.46593
-1.27151 -0.67638 -0.46686
-1.27288 -0.67583 -0.46717
-1.28003 -0.65406 -0.46569
-1.27965 -0.65259 -0.46554
-1.27762 -0.65029 -0.46462
-1.29242 -0.63121 -0.46622
-1.29206 -0.62978 -0.46591
-1.29170 -0.62835 -0.46561
-1.31553 -0.58585 -0.46728
-1.31339 -0.58366 -0.46636
-1.31302 -0.58226 -0.46589
-1.32545 -0.56299 -0.46734
-1.32590 -0.56195 -0.46735
-1.32458 -0.56016 -0.46673
-1.32585 -0.55947 -0.46720
-1.33545 -0.53894 -0.46725
-1.33504 -0.53755 -0.46679
-1.33810 -0.53756 -0.46772
-1.34491 -0.51467 -0.46747
-1.34536 -0.51362 -0.46732
-1.38279 -0.39101 -0.46703
-1.37948 -0.38890 -0.46564
-1.39637 -0.36645 -0.46923
-1.13242 -0.89449 -0.46775
-1.14163 -0.87158 -0.46597
-1.14084 -0.86956 -0.46520
-1.14303 -0.86982 -0.46582
-1.14519 -0.87004 -0.46660
-1.15455 -0.86577 -0.46769
-1.15443 -0.86426 -0.46754
-1.15210 -0.86111 -0.46615
-1.15121 -0.85903 -0.46570
-1.15269 -0.85873 -0.46585
-1.15336 -0.85782 -0.46586
-1.15251 -0.85578 -0.46524
-1.15318 -0.85488 -0.46525
-1.15614 -0.85567 -0.46617
-1.15605 -0.85419 -0.46587
-1.15442 -0.85159 -0.46494
-1.15658 -0.85178 -0.46572
-1.15801 -0.85144 -0.46603
-1.15791 -0.84996 -0.46573
-1.15700 -0.84790 -0.46527
-1.15771 -0.84702 -0.46512
-1.15757 -0.84551 -0.46497
-1.15743 -0.84401 -0.46482
-1.16270 -0.84645 -0.46667
-1.21734 -0.76564 -0.46692
-1.21951 -0.76566 -0.46770
-1.22966 -0.74392 -0.46652
-1.23101 -0.74342 -0.46699
-1.23083 -0.74198 -0.46653
-1.24207 -0.72098 -0.46643
-1.24510 -0.72143 -0.46736
-1.25658 -0.69924 -0.46712
-1.25713 -0.69825 -0.46712
-1.26475 -0.67406 -0.46595
-1.26695 -0.67396 -0.46657
-1.26837 -0.67343 -0.46673
-1.27957 -0.65382 -0.46725
-1.27670 -0.65109 -0.46602
-1.27721 -0.65009 -0.46602
-1.29210 -0.63105 -0.46731
-1.29341 -0.63043 -0.46778
-1.29134 -0.62817 -0.46686
-1.30495 -0.60838 -0.46816
-1.31260 -0.58454 -0.46745
-1.31219 -0.58312 -0.46714
-1.31352 -0.58248 -0.46745
-1.32070 -0.56097 -0.46705
-1.32289 -0.56068 -0.46767
-1.32421 -0.56001 -0.46798
-1.32709 -0.53556 -0.46588
-1.33015 -0.53558 -0.46681
-1.36938 -0.41184 -0.46606
-1.36697 -0.40994 -0.46513
-1.38184 -0.38957 -0.46782
-1.38036 -0.38798 -0.46705
-1.37975 -0.38663 -0.46675
-1.09183 -0.93284 -0.46671
-1.09184 -0.93136 -0.46640
-1.13908 -0.86964 -0.46614
-1.14203 -0.87047 -0.46707
-1.15022 -0.86111 -0.46757
-1.14712 -0.85739 -0.46587
-1.14551 -0.85478 -0.46494
-1.14694 -0.85445 -0.46525
-1.14986 -0.85522 -0.46634
-1.15053 -0.85432 -0.46634
-1.14887 -0.85168 -0.46557
-1.15030 -0.85135 -0.46589
-1.15250 -0.85157 -0.46651
-1.15240 -0.85010 -0.46620
-1.15383 -0.84976 -0.46651
-1.15526 -0.84942 -0.46683
-1.15286 -0.84626 -0.46559
-1.15506 -0.84647 -0.46621
-1.15573 -0.84556 -0.46622
-1.15490 -0.84356 -0.46544
-1.15633 -0.84321 -0.46576
-1.17856 -0.79828 -0.46341
-1.18077 -0.79842 -0.46403
-1.18529 -0.80012 -0.46574
-1.22976 -0.74266 -0.46824
-1.25203 -0.69671 -0.46698
-1.25258 -0.69572 -0.46698
-1.26642 -0.67623 -0.46797
-1.26439 -0.67387 -0.46720
-1.26496 -0.67290 -0.46705
-1.28521 -0.62644 -0.46671
-1.28746 -0.62628 -0.46718
-1.35175 -0.45946 -0.46655
-1.35769 -0.43534 -0.46600
-1.35894 -0.43456 -0.46631
-1.37043 -0.41334 -0.46808
-1.36894 -0.41171 -0.46746
-1.36835 -0.41035 -0.46715
-1.08421 -0.92780 -0.46548
-1.08422 -0.92633 -0.46517
-1.08784 -0.92795 -0.46641
-1.10080 -0.90661 -0.46508
-1.14291 -0.85424 -0.46587
-1.14286 -0.85280 -0.46541
-1.14505 -0.85304 -0.46604
-1.14724 -0.85327 -0.46666
-1.14791 -0.85237 -0.46666
-1.14782 -0.85090 -0.46635
-1.14772 -0.84944 -0.46605
-1.14992 -0.84966 -0.46667
-1.15062 -0.84879 -0.46652
-1.15129 -0.84789 -0.46652
