-1.27233 -0.79185 -0.46466
-1.27458 -0.79185 -0.46525
-1.27683 -0.79185 -0.46585
-1.27984 -0.79233 -0.46690
-1.28047 -0.79131 -0.46691
-1.27946 -0.78930 -0.46631
-1.28090 -0.78879 -0.46662
-1.28233 -0.78828 -0.46691
-1.28291 -0.78724 -0.46708
-1.28353 -0.78623 -0.46708
-1.28496 -0.78572 -0.46738
-1.28640 -0.78520 -0.46768
-1.28702 -0.78418 -0.46769
-1.28682 -0.78267 -0.46739
-1.28821 -0.78212 -0.46786
-1.28887 -0.78113 -0.46770
-1.28785 -0.77913 -0.46710
-1.28601 -0.77663 -0.46622
-1.28666 -0.77564 -0.46606
-1.28973 -0.77610 -0.46695
-1.29034 -0.77509 -0.46695
-1.28931 -0.77308 -0.46636
-1.28910 -0.77158 -0.46607
-1.28975 -0.77058 -0.46591
-1.29118 -0.77006 -0.46621
-1.29260 -0.76952 -0.46651
-1.29321 -0.76850 -0.46651
-1.29386 -0.76751 -0.46635
-1.29693 -0.76795 -0.46724
-1.29667 -0.76641 -0.46711
-1.29645 -0.76490 -0.46682
-1.29705 -0.76388 -0.46682
-1.29930 -0.76382 -0.46742
-1.30072 -0.76328 -0.46772
-1.30050 -0.76177 -0.46742
-1.29858 -0.75927 -0.46670
-1.29749 -0.75726 -0.46628
-1.30060 -0.75770 -0.46700
-1.30363 -0.75809 -0.46806
-1.30423 -0.75706 -0.46806
-1.30235 -0.75460 -0.46718
-1.30464 -0.75455 -0.46761
-1.30601 -0.75397 -0.46807
-1.30413 -0.75151 -0.46719
-1.30141 -0.74858 -0.46600
-1.30282 -0.74803 -0.46630
-1.30921 -0.75032 -0.46838
-1.31150 -0.75026 -0.46881
-1.30707 -0.74636 -0.46720
-1.30605 -0.74441 -0.46645
-1.30829 -0.74432 -0.46704
-1.30892 -0.74331 -0.46688
-1.31283 -0.74416 -0.46807
-1.31342 -0.74313 -0.46807
-1.31151 -0.74068 -0.46719
-1.31288 -0.74009 -0.46765
-1.31263 -0.73859 -0.46736
-1.31159 -0.73664 -0.46660
-1.31300 -0.73607 -0.46690
-1.31604 -0.73641 -0.46796
-1.31662 -0.73537 -0.46796
-1.31553 -0.73340 -0.46737
-1.31694 -0.73283 -0.46767
-1.31914 -0.73269 -0.46843
-1.31972 -0.73165 -0.46843
-1.31700 -0.72878 -0.46709
-1.31753 -0.72772 -0.46725
-1.31977 -0.72760 -0.46785
-1.31867 -0.72564 -0.46726
-1.31669 -0.72319 -0.46654
-1.31725 -0.72215 -0.46654
-1.32034 -0.72249 -0.46743
-1.32174 -0.72191 -0.46773
-1.32399 -0.72178 -0.46833
-1.32791 -0.72256 -0.46952
-1.32769 -0.72108 -0.46906
-1.32322 -0.71730 -0.46729
-1.32882 -0.71898 -0.46907
-1.32939 -0.71793 -0.46907
-1.32659 -0.71507 -0.46789
-1.32715 -0.71402 -0.46789
-1.32939 -0.71388 -0.46849
-1.32659 -0.71103 -0.46730
-1.32635 -0.70957 -0.46685
-1.32690 -0.70852 -0.46685
-1.32577 -0.70658 -0.46626
-1.32721 -0.70601 -0.46640
-1.32946 -0.70586 -0.46699
-1.33001 -0.70482 -0.46699
-1.33056 -0.70378 -0.46700
-1.33107 -0.70271 -0.46716
-1.33162 -0.70166 -0.46717
-1.33217 -0.70061 -0.46717
-1.33525 -0.70090 -0.46806
-1.33750 -0.70073 -0.46866
-1.33635 -0.69880 -0.46807
-1.33267 -0.69554 -0.46659
-1.33232 -0.69403 -0.46646
-1.33456 -0.69386 -0.46705
-1.33595 -0.69325 -0.46736
-1.33564 -0.69176 -0.46706
-1.33614 -0.69069 -0.46723
-1.33753 -0.69008 -0.46753
-1.33637 -0.68815 -0.46694
-1.33521 -0.68623 -0.46635
-1.33580 -0.68520 -0.46619
-1.33718 -0.68459 -0.46649
-1.33772 -0.68354 -0.46649
-1.33826 -0.68248 -0.46649
-1.33794 -0.68100 -0.46620
-1.33933 -0.68038 -0.46650
-1.33986 -0.67933 -0.46650
-1.33954 -0.67784 -0.46621
-1.34097 -0.67724 -0.46634
-1.34401 -0.67746 -0.46740
-1.34625 -0.67726 -0.46800
-1.34597 -0.67579 -0.46754
-1.34560 -0.67429 -0.46741
-1.34613 -0.67323 -0.46741
-1.34922 -0.67345 -0.46831
-1.34889 -0.67196 -0.46801
-1.34514 -0.66878 -0.46653
-1.34396 -0.66687 -0.46594
-1.34615 -0.66664 -0.46670
-1.34667 -0.66558 -0.46670
-1.34981 -0.66581 -0.46743
-1.35028 -0.66473 -0.46760
-1.34823 -0.66241 -0.46671
-1.34704 -0.66051 -0.46612
-1.35098 -0.66112 -0.46731
-1.35236 -0.66048 -0.46761
-1.35197 -0.65898 -0.46748
-1.35082 -0.65710 -0.46673
-1.35386 -0.65727 -0.46779
-1.35696 -0.65746 -0.46868
-1.35494 -0.65516 -0.46763
-1.35201 -0.65244 -0.46644
-1.39802 -0.53877 -0.46586
-1.40357 -0.51569 -0.46520
-1.40398 -0.51458 -0.46520
-1.40802 -0.51480 -0.46623
-1.41495 -0.49217 -0.46632
-1.41443 -0.49074 -0.46602
-1.41572 -0.48994 -0.46632
-1.42112 -0.46807 -0.46562
-1.41968 -0.46636 -0.46503
-1.42367 -0.46642 -0.46622
-1.44820 -0.36422 -0.46493
-1.45034 -0.36354 -0.46553
-1.15288 -0.96172 -0.46600
-1.15441 -0.96146 -0.46613
-1.15732 -0.96235 -0.46719
-1.15596 -0.94899 -0.46425
-1.15744 -0.94869 -0.46455
-1.16040 -0.94960 -0.46544
-1.15967 -0.94748 -0.46485
-1.15893 -0.94536 -0.46426
-1.15893 -0.94384 -0.46397
-1.15819 -0.94173 -0.46338
-1.15586 -0.92933 -0.46059
-1.15435 -0.92663 -0.45971
-1.15583 -0.92632 -0.46001
-1.16175 -0.92807 -0.46179
-1.16323 -0.92776 -0.46209
-1.16769 -0.92982 -0.46358
-1.16917 -0.92949 -0.46388
-1.16844 -0.92742 -0.46313
-1.16917 -0.92650 -0.46313
-1.17214 -0.92736 -0.46402
-1.17437 -0.92762 -0.46462
-1.17588 -0.92732 -0.46475
-1.18405 -0.92775 -0.46684
-1.18327 -0.92564 -0.46625
-1.18400 -0.92471 -0.46625
-1.18322 -0.92260 -0.46566
-1.18319 -0.92109 -0.46537
-1.18768 -0.92309 -0.46686
-1.19142 -0.92450 -0.46804
-1.19290 -0.92414 -0.46834
-1.20060 -0.90769 -0.46737
-1.19903 -0.90502 -0.46648
-1.19974 -0.90408 -0.46648
-1.19968 -0.90256 -0.46619
-1.19810 -0.89990 -0.46530
-1.19880 -0.89895 -0.46531
-1.20180 -0.89973 -0.46620
-1.20327 -0.89936 -0.46650
-1.20321 -0.89784 -0.46620
-1.20315 -0.89632 -0.46591
-1.20232 -0.89424 -0.46532
-1.20302 -0.89329 -0.46532
-1.20372 -0.89235 -0.46533
-1.20592 -0.89251 -0.46609
-1.20508 -0.89043 -0.46550
-1.20501 -0.88891 -0.46520
-1.20413 -0.88680 -0.46477
-1.22561 -0.88487 -0.46986
-1.16773 -0.81811 -0.44288
-1.16360 -0.81385 -0.44142
-1.16428 -0.81296 -0.44127
-1.16257 -0.81040 -0.44038
-1.16164 -0.80839 -0.43979
-1.16389 -0.80859 -0.44023
-1.16609 -0.80876 -0.44083
-1.16904 -0.80945 -0.44187
-1.17204 -0.81015 -0.44277
-1.17342 -0.80974 -0.44322
-1.17327 -0.80827 -0.44293
-1.17238 -0.80629 -0.44218
-1.16986 -0.80321 -0.44100
-1.16809 -0.80063 -0.44026
-1.16876 -0.79974 -0.44011
-1.17097 -0.79990 -0.44071
-1.17081 -0.79843 -0.44041
-1.16828 -0.79536 -0.43923
-1.16733 -0.79336 -0.43864
-1.16716 -0.79190 -0.43834
-1.16700 -0.79045 -0.43805
-1.16999 -0.79113 -0.43894
-1.17536 -0.79341 -0.44073
-1.17832 -0.79406 -0.44178
-1.17737 -0.79206 -0.44118
-1.17724 -0.79063 -0.44074
-1.18028 -0.79132 -0.44148
-1.18161 -0.79087 -0.44208
-1.18148 -0.78943 -0.44163
-1.18286 -0.78900 -0.44209
-1.18984 -0.79230 -0.44447
-1.19109 -0.79042 -0.44447
-1.19251 -0.79001 -0.44477
-1.19548 -0.79062 -0.44582
-1.19849 -0.79125 -0.44672
-1.20390 -0.79346 -0.44850
-1.20931 -0.79566 -0.45029
-1.21073 -0.79523 -0.45059
-1.21216 -0.79480 -0.45089
-1.21682 -0.79648 -0.45222
-1.21984 -0.79709 -0.45311
-1.22127 -0.79665 -0.45341
-1.22350 -0.79672 -0.45401
-1.22733 -0.79784 -0.45520
-1.22800 -0.79690 -0.45504
-1.22943 -0.79645 -0.45534
-1.23086 -0.79600 -0.45564
-1.23229 -0.79554 -0.45594
-1.23612 -0.79664 -0.45713
-1.24077 -0.79825 -0.45862
-1.24139 -0.79727 -0.45862
-1.23724 -0.79322 -0.45668
-1.23541 -0.79067 -0.45595
-1.23925 -0.79175 -0.45715
-1.24229 -0.79232 -0.45804
-1.24296 -0.79136 -0.45788
-1.24596 -0.79189 -0.45893
-1.24819 -0.79193 -0.45953
-1.25043 -0.79197 -0.46013
-1.25186 -0.79149 -0.46043
-1.25329 -0.79101 -0.46073
-1.25387 -0.79000 -0.46089
-1.25530 -0.78951 -0.46119
-1.25916 -0.79055 -0.46238
-1.26463 -0.79260 -0.46417
-1.26764 -0.79310 -0.46522
-1.26908 -0.79260 -0.46553
-1.26889 -0.79109 -0.46523
-1.26951 -0.79009 -0.46523
-1.27180 -0.79012 -0.46567
-1.27486 -0.79063 -0.46656
-1.27710 -0.79063 -0.46716
-1.27773 -0.78962 -0.46716
-1.27754 -0.78811 -0.46687
-1.27897 -0.78760 -0.46717
-1.28040 -0.78709 -0.46747
-1.28265 -0.78708 -0.46807
-1.28576 -0.78759 -0.46880
-1.28633 -0.78655 -0.46896
-1.28704 -0.78559 -0.46864
-1.28512 -0.78303 -0.46808
-1.28252 -0.78006 -0.46673
-1.28232 -0.77855 -0.46643
-1.28534 -0.77899 -0.46749
-1.28763 -0.77900 -0.46792
-1.28411 -0.77548 -0.46661
-1.28313 -0.77351 -0.46585
-1.28697 -0.77444 -0.46721
-1.28840 -0.77392 -0.46751
-1.28651 -0.77140 -0.46678
-1.28547 -0.76941 -0.46619
-1.28854 -0.76986 -0.46709
-1.29160 -0.77031 -0.46798
-1.29221 -0.76929 -0.46798
-1.29282 -0.76827 -0.46799
-1.29178 -0.76628 -0.46740
-1.29238 -0.76526 -0.46740
-1.29298 -0.76423 -0.46740
-1.29601 -0.76464 -0.46846
-1.29830 -0.76462 -0.46889
-1.29808 -0.76311 -0.46860
-1.29786 -0.76160 -0.46830
-1.29763 -0.76009 -0.46801
-1.29906 -0.75955 -0.46831
-1.29970 -0.75855 -0.46815
-1.30029 -0.75753 -0.46815
-1.30089 -0.75650 -0.46815
-1.30149 -0.75547 -0.46816
-1.30378 -0.75543 -0.46859
-1.30437 -0.75440 -0.46859
-1.30249 -0.75194 -0.46771
-1.30059 -0.74948 -0.46682
-1.30118 -0.74845 -0.46682
-1.30426 -0.74885 -0.46771
-1.30568 -0.74830 -0.46802
-1.30627 -0.74726 -0.46802
-1.30598 -0.74574 -0.46789
-1.30491 -0.74376 -0.46730
-1.30632 -0.74320 -0.46760
-1.30935 -0.74356 -0.46866
-1.31243 -0.74394 -0.46955
-1.31385 -0.74337 -0.46985
-1.31527 -0.74281 -0.47015
-1.31252 -0.73989 -0.46897
-1.30811 -0.73605 -0.46719
-1.30698 -0.73405 -0.46676
-1.31256 -0.73582 -0.46854
-1.31651 -0.73668 -0.46957
-1.31709 -0.73564 -0.46957
-1.31346 -0.73225 -0.46825
-1.31153 -0.72982 -0.46737
-1.31549 -0.73066 -0.46840
-1.31356 -0.72824 -0.46751
-1.31167 -0.72584 -0.46645
-1.31391 -0.72572 -0.46705
-1.31779 -0.72651 -0.46841
-1.32003 -0.72639 -0.46900
-1.31981 -0.72491 -0.46855
-1.31954 -0.72341 -0.46825
-1.31844 -0.72145 -0.46766
-1.32068 -0.72133 -0.46826
-1.32712 -0.72348 -0.47034
-1.32769 -0.72244 -0.47034
-1.32043 -0.71579 -0.46738
-1.32683 -0.71790 -0.46963
-1.32991 -0.71822 -0.47052
-1.32908 -0.71371 -0.46964
-1.32959 -0.71265 -0.46980
-1.32678 -0.70980 -0.46862
-1.32481 -0.70741 -0.46773
-1.32284 -0.70502 -0.46684
-1.32171 -0.70308 -0.46625
-1.32306 -0.70247 -0.46671
-1.32867 -0.70411 -0.46850
-1.32584 -0.70128 -0.46731
-1.33628 -0.68148 -0.46688
-1.33512 -0.67956 -0.46629
-1.33390 -0.67762 -0.46586
-1.34603 -0.65739 -0.46668
-1.34402 -0.65510 -0.46563
-1.34367 -0.65363 -0.46533
-1.38769 -0.56383 -0.46710
-1.38547 -0.56166 -0.46621
-1.39361 -0.53833 -0.46614
-1.39314 -0.53689 -0.46585
-1.40588 -0.51654 -0.46739
-1.40360 -0.51444 -0.46650
-1.40221 -0.51268 -0.46591
-1.40351 -0.51190 -0.46621
-1.41646 -0.49270 -0.46789
-1.41685 -0.49158 -0.46790
-1.41904 -0.49108 -0.46849
-1.45019 -0.36594 -0.46746
-1.45048 -0.36479 -0.46746
-1.15622 -0.96296 -0.46866
-1.15483 -0.94807 -0.46558
-1.15555 -0.92907 -0.46189
-1.15330 -0.92578 -0.46070
-1.15398 -0.92484 -0.46087
-1.16216 -0.92990 -0.46384
-1.15916 -0.92600 -0.46236
-1.16213 -0.92688 -0.46325
-1.16651 -0.92589 -0.46432
-1.17620 -0.93057 -0.46760
-1.17393 -0.92728 -0.46641
-1.17462 -0.92632 -0.46658
-1.17759 -0.92717 -0.46747
-1.17911 -0.92687 -0.46761
-1.17833 -0.92476 -0.46702
-1.17981 -0.92442 -0.46732
-1.18119 -0.92102 -0.46719
-1.17969 -0.91837 -0.46614
-1.18117 -0.91802 -0.46644
-1.18490 -0.91944 -0.46763
-1.18940 -0.92143 -0.46913
-1.20020 -0.90738 -0.46901
-1.19634 -0.90299 -0.46722
-1.19319 -0.89914 -0.46590
-1.19313 -0.89763 -0.46561
-1.19765 -0.89956 -0.46710
-1.20061 -0.90031 -0.46816
-1.19830 -0.89711 -0.46681
-1.19594 -0.89388 -0.46562
-1.19737 -0.89348 -0.46608
-1.19883 -0.89311 -0.46638
-1.19877 -0.89160 -0.46609
-1.20027 -0.89125 -0.46623
-1.20327 -0.89202 -0.46712
-1.20321 -0.89050 -0.46683
-1.20160 -0.88785 -0.46594
-1.20306 -0.88748 -0.46624
-1.20607 -0.88823 -0.46714
-1.16974 -0.82090 -0.44594
-1.16260 -0.81452 -0.44281
-1.16246 -0.81306 -0.44251
-1.16232 -0.81159 -0.44222
-1.16218 -0.81013 -0.44192
-1.16360 -0.80976 -0.44222
-1.16424 -0.80884 -0.44222
-1.16491 -0.80795 -0.44207
-1.16629 -0.80754 -0.44253
-1.17007 -0.80879 -0.44372
-1.17228 -0.80895 -0.44432
-1.17296 -0.80805 -0.44417
-1.17045 -0.80497 -0.44298
-1.16789 -0.80185 -0.44195
-1.16695 -0.79985 -0.44135
-1.16758 -0.79893 -0.44136
-1.16663 -0.79693 -0.44076
-1.16568 -0.79493 -0.44017
-1.16390 -0.79238 -0.43943
-1.16295 -0.79038 -0.43884
-1.16357 -0.78946 -0.43884
-1.17130 -0.79336 -0.44153
-1.17351 -0.79351 -0.44213
-1.17097 -0.79045 -0.44094
-1.17076 -0.78896 -0.44080
-1.17459 -0.79019 -0.44184
-1.17680 -0.79033 -0.44244
-1.17821 -0.78994 -0.44274
-1.17963 -0.78953 -0.44304
-1.18184 -0.78966 -0.44364
-1.18405 -0.78979 -0.44423
-1.18630 -0.78994 -0.44468
-1.19006 -0.79109 -0.44603
-1.19307 -0.79174 -0.44693
-1.19608 -0.79238 -0.44782
-1.19913 -0.79304 -0.44856
-1.20374 -0.79472 -0.45005
-1.20915 -0.79692 -0.45184
-1.21217 -0.79754 -0.45274
-1.21515 -0.79813 -0.45380
-1.21977 -0.79979 -0.45529
-1.22364 -0.80094 -0.45632
-1.22267 -0.79893 -0.45573
-1.22006 -0.79585 -0.45470
-1.21988 -0.79437 -0.45441
-1.22451 -0.79601 -0.45590
-1.22754 -0.79660 -0.45680
-1.22572 -0.79405 -0.45606
-1.22955 -0.79515 -0.45726
-1.23178 -0.79522 -0.45786
-1.23000 -0.79269 -0.45697
-1.22902 -0.79069 -0.45637
-1.23286 -0.79178 -0.45757
-1.23669 -0.79287 -0.45876
-1.23567 -0.79084 -0.45833
-1.23392 -0.78835 -0.45728
-1.23454 -0.78737 -0.45728
-1.23919 -0.78896 -0.45878
-1.24464 -0.79106 -0.46057
-1.24688 -0.79110 -0.46117
-1.24831 -0.79062 -0.46147
-1.25220 -0.79170 -0.46250
-1.25686 -0.79326 -0.46399
-1.25829 -0.79278 -0.46430
-1.26487 -0.79136 -0.46564
-1.26630 -0.79087 -0.46594
-1.26774 -0.79038 -0.46624
-1.26836 -0.78937 -0.46624
-1.27141 -0.78988 -0.46714
-1.27285 -0.78938 -0.46744
-1.27184 -0.78737 -0.46685
-1.27161 -0.78584 -0.46671
-1.27385 -0.78584 -0.46731
-1.27691 -0.78634 -0.46821
-1.27672 -0.78483 -0.46791
-1.27652 -0.78332 -0.46762
-1.27876 -0.78331 -0.46822
-1.28097 -0.78327 -0.46898
-1.27891 -0.76822 -0.46603
-1.28120 -0.76822 -0.46647
-1.28426 -0.76868 -0.46736
-1.28569 -0.76816 -0.46766
-1.28793 -0.76812 -0.46826
-1.29778 -0.74922 -0.46835
-1.29506 -0.74629 -0.46715
-1.29482 -0.74479 -0.46686
-1.29784 -0.74517 -0.46792
-1.30982 -0.72616 -0.46779
-1.30788 -0.72374 -0.46690
-1.30674 -0.72176 -0.46647
-1.30981 -0.72211 -0.46736
-1.31709 -0.70063 -0.46623
-1.31848 -0.70004 -0.46653
-1.31987 -0.69945 -0.46683
-1.32809 -0.67730 -0.46616
-1.32692 -0.67539 -0.46556
-1.32910 -0.67519 -0.46632
-1.33700 -0.65298 -0.46533
-1.33751 -0.65193 -0.46533
-1.34979 -0.63058 -0.46599
-1.35202 -0.63033 -0.46659
-1.35873 -0.60637 -0.46546
-1.35659 -0.60413 -0.46456
-1.36803 -0.58235 -0.46555
-1.36849 -0.58127 -0.46555
-1.38009 -0.56074 -0.46651
-1.37876 -0.55894 -0.46591
-1.38186 -0.55893 -0.46681
-1.39051 -0.53714 -0.46671
-1.39098 -0.53606 -0.46655
-1.39229 -0.53531 -0.46685
-1.40316 -0.51428 -0.46797
-1.40357 -0.51318 -0.46797
-1.42919 -0.41267 -0.46647
-1.43043 -0.41181 -0.46677
-1.43331 -0.38704 -0.46578
-1.15881 -0.93319 -0.46562
-1.15284 -0.92690 -0.46293
-1.15287 -0.92543 -0.46247
-1.15657 -0.92691 -0.46367
-1.16476 -0.92897 -0.46591
-1.17213 -0.92735 -0.46741
-1.17061 -0.92466 -0.46652
-1.17355 -0.92548 -0.46758
-1.17956 -0.92872 -0.46951
-1.17789 -0.91994 -0.46760
-1.17635 -0.91725 -0.46671
-1.17933 -0.91809 -0.46761
-1.18156 -0.91833 -0.46821
-1.18303 -0.91799 -0.46851
-1.18989 -0.89959 -0.46676
-1.18907 -0.89750 -0.46617
-1.19130 -0.89772 -0.46677
-1.19281 -0.89739 -0.46691
-1.19198 -0.89530 -0.46631
-1.19192 -0.89379 -0.46602
-1.19415 -0.89400 -0.46662
-1.19485 -0.89306 -0.46662
-1.19326 -0.89041 -0.46573
-1.19319 -0.88890 -0.46543
-1.19695 -0.89024 -0.46663
-1.19765 -0.88930 -0.46663
-1.19758 -0.88779 -0.46634
-1.19823 -0.88682 -0.46650
-1.19893 -0.88588 -0.46651
-1.19732 -0.88324 -0.46561
-1.19571 -0.88060 -0.46472
-1.19640 -0.87966 -0.46472
-1.20959 -0.87767 -0.46790
-1.20874 -0.87560 -0.46730
-1.16608 -0.81695 -0.44600
-1.16359 -0.81385 -0.44481
-1.16267 -0.81183 -0.44422
-1.16409 -0.81146 -0.44452
-1.16473 -0.81054 -0.44452
-1.16380 -0.80854 -0.44392
-1.16522 -0.80816 -0.44423
-1.16664 -0.80778 -0.44453
-1.16728 -0.80686 -0.44453
-1.16948 -0.80702 -0.44513
-1.17094 -0.80667 -0.44528
-1.16918 -0.80410 -0.44454
-1.16671 -0.80104 -0.44319
-1.16576 -0.79904 -0.44260
-1.16482 -0.79704 -0.44200
-1.16312 -0.79453 -0.44095
-1.16059 -0.79146 -0.43976
-1.16122 -0.79055 -0.43977
-1.16342 -0.79070 -0.44037
-1.16720 -0.79193 -0.44156
-1.16861 -0.79154 -0.44187
-1.16924 -0.79062 -0.44187
-1.16986 -0.78970 -0.44187
-1.17286 -0.79037 -0.44277
-1.17506 -0.79051 -0.44337
-1.17568 -0.78958 -0.44337
-1.17793 -0.78975 -0.44382
-1.18168 -0.79091 -0.44517
-1.18623 -0.79260 -0.44682
-1.18999 -0.79376 -0.44818
-1.19304 -0.79443 -0.44892
-1.19446 -0.79402 -0.44922
-1.19584 -0.79358 -0.44968
-1.19885 -0.79421 -0.45058
-1.20270 -0.79540 -0.45162
-1.20568 -0.79600 -0.45268
-1.20870 -0.79662 -0.45358
-1.21411 -0.79882 -0.45538
-1.21553 -0.79838 -0.45568
-1.21457 -0.79638 -0.45508
-1.21603 -0.79597 -0.45523
-1.21981 -0.79707 -0.45659
-1.22128 -0.79665 -0.45673
-1.22111 -0.79517 -0.45643
-1.22094 -0.79368 -0.45614
-1.22316 -0.79376 -0.45674
-1.22299 -0.79227 -0.45644
-1.22361 -0.79131 -0.45644
-1.22824 -0.79293 -0.45794
-1.23207 -0.79403 -0.45914
-1.23190 -0.79254 -0.45884
-1.22931 -0.78950 -0.45765
-1.22913 -0.78802 -0.45736
-1.23618 -0.79116 -0.45975
-1.23997 -0.79222 -0.46111
-1.24140 -0.79175 -0.46141
-1.24207 -0.79080 -0.46125
-1.24426 -0.79081 -0.46201
-1.26112 -0.78901 -0.46639
-1.26417 -0.78953 -0.46729
-1.26803 -0.79056 -0.46849
-1.26865 -0.78956 -0.46849
-1.26932 -0.78858 -0.46833
-1.27156 -0.78858 -0.46893
-1.27542 -0.78959 -0.47013
-1.27523 -0.78808 -0.46984
-1.27261 -0.78507 -0.46864
-1.27327 -0.78409 -0.46848
-1.27994 -0.76747 -0.46779
-1.28137 -0.76695 -0.46810
-1.28443 -0.76740 -0.46900
-1.29499 -0.74761 -0.46859
-1.29471 -0.74608 -0.46846
-1.29447 -0.74459 -0.46816
-1.30599 -0.72404 -0.46838
-1.30660 -0.72303 -0.46823
-1.31135 -0.72431 -0.46972
-1.31323 -0.69857 -0.46682
-1.31209 -0.69664 -0.46622
-1.31436 -0.69653 -0.46666
-1.32258 -0.67449 -0.46582
-1.32051 -0.67213 -0.46509
-1.33835 -0.65364 -0.46722
-1.33543 -0.65092 -0.46603
-1.33508 -0.64945 -0.46573
-1.34760 -0.62956 -0.46701
-1.34810 -0.62850 -0.46702
-1.35561 -0.60497 -0.46634
-1.35870 -0.60507 -0.46724
-1.37033 -0.58333 -0.46758
-1.37343 -0.58337 -0.46848
-1.37839 -0.55879 -0.46721
-1.41896 -0.43531 -0.46713
-1.41930 -0.43419 -0.46713
-1.42875 -0.41254 -0.46793
-1.42903 -0.41140 -0.46809
-1.42843 -0.41001 -0.46780
-1.13772 -0.95515 -0.46640
-1.15548 -0.93051 -0.46588
-1.15472 -0.92841 -0.46528
-1.15768 -0.92929 -0.46618
-1.16064 -0.93017 -0.46708
-1.16279 -0.92741 -0.46725
-1.17017 -0.92431 -0.46831
-1.17599 -0.91697 -0.46817
-1.17897 -0.91780 -0.46907
-1.18195 -0.91863 -0.46997
-1.18710 -0.89602 -0.46736
-1.18628 -0.89394 -0.46676
-1.18622 -0.89243 -0.46646
-1.18696 -0.89153 -0.46630
-1.18919 -0.89174 -0.46691
-1.19065 -0.89138 -0.46721
-1.18982 -0.88930 -0.46661
-1.18975 -0.88779 -0.46631
-1.19121 -0.88743 -0.46662
-1.19348 -0.88766 -0.46706
-1.19341 -0.88616 -0.46676
-1.19257 -0.88408 -0.46616
-1.19250 -0.88258 -0.46587
-1.19319 -0.88164 -0.46587
-1.19465 -0.88127 -0.46617
-1.19534 -0.88033 -0.46618
-1.19603 -0.87939 -0.46618
-1.19672 -0.87845 -0.46618
-1.20540 -0.87608 -0.46832
-1.20223 -0.87233 -0.46683
-1.20206 -0.87076 -0.46685
-1.16185 -0.81399 -0.44575
-1.16015 -0.81144 -0.44485
-1.16939 -0.81653 -0.44815
-1.16999 -0.81558 -0.44831
-1.16828 -0.81302 -0.44741
-1.16657 -0.81046 -0.44651
-1.16639 -0.80897 -0.44637
-1.16624 -0.80751 -0.44607
-1.16845 -0.80767 -0.44668
-1.17301 -0.80946 -0.44818
-1.17365 -0.80853 -0.44818
-1.17114 -0.80544 -0.44699
-1.16784 -0.80182 -0.44549
-1.16375 -0.79766 -0.44369
-1.16202 -0.79512 -0.44279
-1.16264 -0.79421 -0.44280
-1.16331 -0.79332 -0.44265
-1.16236 -0.79132 -0.44205
-1.16219 -0.78987 -0.44175
-1.16518 -0.79056 -0.44265
-1.16580 -0.78964 -0.44266
-1.16485 -0.78765 -0.44206
-1.16709 -0.78783 -0.44251
-1.17245 -0.79010 -0.44431
-1.17545 -0.79078 -0.44521
-1.17607 -0.78985 -0.44522
-1.18049 -0.79011 -0.44642
-1.18587 -0.79236 -0.44822
-1.19364 -0.79619 -0.45092
-1.19744 -0.79736 -0.45213
-1.19962 -0.79744 -0.45289
-1.20342 -0.79861 -0.45409
-1.20648 -0.79927 -0.45483
-1.20711 -0.79831 -0.45484
-1.20770 -0.79733 -0.45500
-1.21306 -0.79950 -0.45696
-1.21533 -0.79962 -0.45740
-1.21277 -0.79656 -0.45621
-1.21096 -0.79401 -0.45547
-1.21394 -0.79460 -0.45653
-1.21620 -0.79471 -0.45697
-1.21443 -0.79218 -0.45608
-1.21505 -0.79122 -0.45608
-1.21808 -0.79183 -0.45698
-1.21950 -0.79138 -0.45728
-1.22017 -0.79045 -0.45713
-1.22235 -0.79049 -0.45789
-1.22461 -0.79059 -0.45833
-1.22684 -0.79066 -0.45894
-1.22987 -0.79124 -0.45984
-1.22893 -0.78926 -0.45908
-1.23272 -0.79032 -0.46044
-1.23817 -0.79244 -0.46225
-1.23879 -0.79146 -0.46225
-1.23861 -0.78997 -0.46195
-1.25849 -0.78875 -0.46725
-1.25988 -0.78824 -0.46771
-1.26131 -0.78775 -0.46801
-1.26193 -0.78675 -0.46802
-1.26498 -0.78727 -0.46892
-1.26803 -0.78778 -0.46982
-1.26941 -0.78726 -0.47029
-1.27873 -0.76674 -0.46896
-1.29183 -0.74443 -0.46902
-1.30717 -0.72469 -0.47078
-1.30528 -0.72230 -0.46971
-1.32382 -0.67512 -0.46804
-1.32350 -0.67365 -0.46774
-1.39894 -0.45588 -0.46476
-1.40201 -0.45566 -0.46567
-1.41122 -0.43294 -0.46617
-1.42309 -0.40969 -0.46774
-1.13676 -0.95434 -0.46707
-1.13751 -0.95345 -0.46707
-1.13895 -0.95313 -0.46754
-1.15236 -0.93549 -0.46697
-1.15235 -0.93398 -0.46667
-1.15164 -0.93191 -0.46591
-1.15382 -0.93217 -0.46668
-1.15304 -0.92706 -0.46549
-1.15823 -0.92973 -0.46729
-1.16040 -0.92998 -0.46806
-1.16553 -0.92959 -0.46943
-1.18523 -0.89315 -0.46759
-1.18437 -0.89104 -0.46715
-1.18663 -0.89128 -0.46760
-1.18810 -0.89092 -0.46790
-1.18803 -0.88942 -0.46760
-1.18648 -0.88680 -0.46654
-1.18713 -0.88584 -0.46671
-1.18787 -0.88494 -0.46655
-1.18933 -0.88457 -0.46685
-1.18772 -0.88193 -0.46595
-1.18765 -0.88043 -0.46566
-1.18838 -0.87953 -0.46550
-1.19137 -0.88029 -0.46640
-1.19436 -0.88106 -0.46731
-1.19505 -0.88012 -0.46731
-1.19344 -0.87748 -0.46641
-1.19182 -0.87485 -0.46551
-1.20121 -0.87159 -0.46750
-1.20031 -0.86949 -0.46706
-1.20490 -0.87137 -0.46841
-1.16235 -0.81435 -0.44713
-1.16299 -0.81343 -0.44713
-1.17302 -0.81906 -0.45074
-1.17683 -0.82035 -0.45179
-1.17043 -0.81451 -0.44909
-1.16398 -0.80866 -0.44654
-1.16619 -0.80883 -0.44714
-1.16918 -0.80954 -0.44805
-1.16825 -0.80753 -0.44745
-1.16727 -0.80550 -0.44701
-1.16791 -0.80458 -0.44701
-1.16854 -0.80366 -0.44701
-1.16839 -0.80219 -0.44671
-1.16426 -0.79801 -0.44507
-1.16335 -0.79604 -0.44432
-1.16236 -0.79402 -0.44387
-1.16220 -0.79256 -0.44357
-1.16125 -0.79057 -0.44297
-1.16108 -0.78912 -0.44268
-1.16407 -0.78981 -0.44358
-1.16785 -0.79103 -0.44479
-1.16848 -0.79011 -0.44479
-1.16756 -0.78814 -0.44404
-1.17134 -0.78935 -0.44524
-1.17750 -0.79216 -0.44735
-1.18050 -0.79282 -0.44826
-1.18275 -0.79298 -0.44870
-1.18575 -0.79364 -0.44961
-1.19034 -0.79535 -0.45111
-1.19335 -0.79600 -0.45202
-1.19556 -0.79611 -0.45262
-1.19857 -0.79675 -0.45353
-1.20238 -0.79792 -0.45473
-1.20619 -0.79907 -0.45594
-1.20686 -0.79815 -0.45578
-1.20669 -0.79667 -0.45548
-1.20732 -0.79572 -0.45549
-1.20870 -0.79526 -0.45595
-1.20933 -0.79431 -0.45595
-1.21474 -0.79649 -0.45776
-1.21537 -0.79553 -0.45776
-1.21276 -0.79246 -0.45672
-1.21418 -0.79202 -0.45702
-1.21640 -0.79210 -0.45763
-1.21703 -0.79114 -0.45763
-1.21841 -0.79067 -0.45809
-1.22147 -0.79129 -0.45884
-1.22370 -0.79137 -0.45944
-1.22512 -0.79092 -0.45975
-1.22655 -0.79047 -0.46005
-1.22717 -0.78950 -0.46005
-1.22779 -0.78853 -0.46006
-1.23002 -0.78859 -0.46066
-1.23305 -0.78916 -0.46157
-1.25500 -0.78656 -0.46701
-1.25400 -0.78456 -0.46642
-1.25624 -0.78458 -0.46702
-1.26005 -0.78558 -0.46839
-1.26148 -0.78509 -0.46869
-1.30413 -0.72166 -0.47055
-1.39154 -0.48034 -0.46564
-1.39282 -0.47955 -0.46595
-1.39593 -0.45490 -0.46482
-1.39719 -0.45409 -0.46513
-1.41280 -0.43342 -0.46758
-1.13283 -0.95105 -0.46670
-1.14838 -0.93226 -0.46660
-1.14763 -0.93015 -0.46600
-1.14910 -0.92985 -0.46630
-1.15206 -0.93075 -0.46721
-1.15420 -0.92800 -0.46738
-1.15493 -0.92709 -0.46738
-1.15868 -0.92860 -0.46843
-1.18266 -0.89121 -0.46782
-1.18032 -0.88799 -0.46662
-1.17949 -0.88592 -0.46602
-1.18094 -0.88556 -0.46632
-1.18240 -0.88520 -0.46663
-1.18157 -0.88313 -0.46603
-1.18230 -0.88223 -0.46587
-1.18452 -0.88245 -0.46647
-1.18521 -0.88151 -0.46648
-1.18437 -0.87945 -0.46588
-1.18510 -0.87855 -0.46572
-1.18809 -0.87932 -0.46663
-1.19036 -0.87955 -0.46707
-1.19024 -0.87801 -0.46693
-1.18939 -0.87595 -0.46633
-1.18931 -0.87445 -0.46604
-1.18927 -0.87298 -0.46558
-1.20019 -0.87085 -0.46817
-1.19929 -0.86875 -0.46773
-1.16449 -0.80901 -0.44792
-1.16121 -0.80538 -0.44642
-1.16419 -0.80609 -0.44733
-1.16561 -0.80571 -0.44763
-1.16621 -0.80476 -0.44779
-1.16841 -0.80492 -0.44839
-1.17062 -0.80508 -0.44900
-1.17046 -0.80362 -0.44870
-1.16166 -0.79623 -0.44509
-1.16303 -0.79582 -0.44555
-1.16602 -0.79651 -0.44645
-1.16511 -0.79455 -0.44570
-1.16176 -0.79092 -0.44435
-1.16002 -0.78839 -0.44345
-1.16064 -0.78748 -0.44345
-1.16366 -0.78819 -0.44420
-1.16744 -0.78941 -0.44541
-1.17123 -0.79062 -0.44662
-1.17584 -0.79239 -0.44797
-1.17805 -0.79252 -0.44858
-1.18026 -0.79266 -0.44919
-1.18484 -0.79438 -0.45069
-1.19181 -0.79769 -0.45311
-1.19719 -0.79992 -0.45492
-1.19707 -0.79848 -0.45446
-1.19532 -0.79595 -0.45356
-1.19674 -0.79553 -0.45387
-1.20134 -0.79722 -0.45537
-1.20351 -0.79730 -0.45614
-1.20414 -0.79635 -0.45614
-1.20477 -0.79540 -0.45614
-1.20540 -0.79445 -0.45615
-1.20682 -0.79402 -0.45645
-1.20744 -0.79307 -0.45645
-1.20723 -0.79156 -0.45631
-1.20785 -0.79061 -0.45632
-1.21091 -0.79125 -0.45706
-1.21393 -0.79186 -0.45797
-1.21691 -0.79243 -0.45904
-1.21993 -0.79303 -0.45994
-1.22056 -0.79207 -0.45995
-1.22034 -0.79056 -0.45981
-1.22260 -0.79066 -0.46025
-1.22483 -0.79073 -0.46086
-1.22701 -0.79077 -0.46162
-1.23008 -0.79137 -0.46237
-1.23231 -0.79143 -0.46298
-1.25470 -0.78638 -0.46814
-1.25289 -0.78387 -0.46724
-1.25270 -0.78237 -0.46694
-1.25651 -0.78338 -0.46831
-1.37020 -0.52682 -0.46543
-1.38094 -0.50367 -0.46593
-1.38133 -0.50258 -0.46594
-1.39296 -0.48083 -0.46753
-1.39339 -0.47975 -0.46737
-1.39776 -0.45427 -0.46655
-1.42178 -0.35281 -0.46522
-1.42118 -0.35147 -0.46476
-1.13106 -0.94956 -0.46738
-1.14590 -0.93173 -0.46712
-1.14589 -0.93023 -0.46682
-1.14810 -0.93053 -0.46743
-1.15179 -0.93203 -0.46864
-1.15393 -0.92777 -0.46851
-1.15172 -0.92451 -0.46714
-1.15240 -0.92357 -0.46731
-1.15607 -0.92502 -0.46868
-1.16023 -0.90908 -0.46644
-1.16094 -0.90817 -0.46645
-1.17857 -0.88813 -0.46744
-1.17698 -0.88548 -0.46654
-1.17692 -0.88398 -0.46624
-1.17765 -0.88309 -0.46608
-1.17830 -0.88213 -0.46624
-1.18056 -0.88238 -0.46669
-1.18129 -0.88148 -0.46653
-1.18122 -0.87999 -0.46623
-1.18038 -0.87792 -0.46563
-1.18179 -0.87753 -0.46610
-1.18329 -0.87720 -0.46624
-1.18244 -0.87513 -0.46564
-1.18543 -0.87590 -0.46655
-1.18616 -0.87500 -0.46639
-1.18531 -0.87294 -0.46579
-1.18599 -0.87201 -0.46580
-1.18817 -0.87218 -0.46656
-1.19039 -0.87237 -0.46717
-1.20295 -0.87285 -0.47067
-1.16249 -0.80627 -0.44810
-1.16230 -0.80478 -0.44796
-1.16451 -0.80495 -0.44856
-1.16749 -0.80565 -0.44947
-1.16891 -0.80527 -0.44978
-1.16527 -0.79870 -0.44782
-1.16354 -0.79617 -0.44692
-1.16653 -0.79686 -0.44783
-1.16715 -0.79594 -0.44783
-1.16305 -0.79180 -0.44602
-1.16210 -0.78981 -0.44542
-1.16434 -0.78999 -0.44588
-1.17111 -0.79189 -0.44800
-1.17648 -0.79416 -0.44981
-1.18189 -0.79646 -0.45147
-1.18409 -0.79659 -0.45208
-1.18393 -0.79512 -0.45178
-1.18614 -0.79525 -0.45239
-1.19235 -0.79805 -0.45435
-1.19694 -0.79976 -0.45586
-1.19678 -0.79829 -0.45556
-1.19582 -0.79628 -0.45496
-1.19724 -0.79587 -0.45526
-1.19787 -0.79492 -0.45527
-1.20004 -0.79500 -0.45603
-1.20306 -0.79563 -0.45694
-1.20448 -0.79521 -0.45724
-1.20351 -0.79321 -0.45664
-1.20418 -0.79229 -0.45649
-1.20552 -0.79180 -0.45711
-1.20773 -0.79190 -0.45771
-1.20756 -0.79042 -0.45742
-1.20814 -0.78944 -0.45758
-1.21355 -0.79161 -0.45939
-1.21413 -0.79063 -0.45955
-1.21480 -0.78970 -0.45940
-1.21786 -0.79032 -0.46015
-1.22168 -0.79143 -0.46136
-1.22311 -0.79098 -0.46167
-1.22533 -0.79105 -0.46227
-1.22992 -0.79264 -0.46395
-1.24874 -0.78264 -0.46716
-1.24936 -0.78165 -0.46716
-1.24997 -0.78067 -0.46716
-1.25297 -0.78117 -0.46823
-1.25945 -0.75788 -0.46602
-1.26004 -0.75689 -0.46602
-1.26314 -0.75739 -0.46677
-1.27545 -0.73633 -0.46699
-1.27929 -0.73720 -0.46836
-1.29236 -0.71782 -0.46919
-1.29293 -0.71680 -0.46919
-1.34915 -0.57306 -0.46565
-1.35048 -0.57237 -0.46596
-1.36145 -0.55068 -0.46678
-1.36365 -0.55032 -0.46739
-1.36987 -0.52669 -0.46655
-1.36756 -0.52457 -0.46580
-1.36619 -0.52281 -0.46520
-1.38150 -0.50387 -0.46736
-1.38100 -0.50245 -0.46706
-1.41762 -0.37921 -0.46708
-1.41331 -0.37686 -0.46556
-1.41269 -0.37550 -0.46526
-1.42514 -0.35364 -0.46755
-1.14340 -0.92970 -0.46734
-1.14413 -0.92880 -0.46734
-1.14560 -0.92851 -0.46765
-1.15138 -0.92573 -0.46889
-1.15140 -0.92426 -0.46843
-1.15209 -0.92332 -0.46859
-1.15473 -0.90624 -0.46575
-1.15698 -0.90654 -0.46620
-1.16141 -0.90853 -0.46787
-1.16712 -0.88381 -0.46476
-1.17085 -0.88519 -0.46598
-1.17221 -0.88189 -0.46552
-1.17366 -0.88154 -0.46583
-1.17512 -0.88119 -0.46614
-1.17505 -0.87970 -0.46584
-1.17573 -0.87877 -0.46584
-1.17799 -0.87902 -0.46629
-1.17945 -0.87866 -0.46659
-1.18009 -0.87771 -0.46675
-1.18082 -0.87681 -0.46660
-1.18074 -0.87531 -0.46630
-1.17986 -0.87322 -0.46586
-1.17978 -0.87173 -0.46556
-1.18123 -0.87137 -0.46586
-1.18191 -0.87044 -0.46586
-1.18182 -0.86894 -0.46557
-1.18246 -0.86799 -0.46573
-1.18622 -0.86931 -0.46694
-1.18998 -0.87062 -0.46815
-1.15982 -0.80442 -0.44843
-1.16202 -0.80459 -0.44904
-1.16654 -0.80635 -0.45071
-1.16952 -0.80705 -0.45162
-1.16279 -0.79835 -0.44829
-1.16503 -0.79853 -0.44875
-1.16723 -0.79869 -0.44936
-1.16707 -0.79723 -0.44906
-1.16617 -0.79526 -0.44830
-1.16364 -0.79220 -0.44709
-1.16348 -0.79074 -0.44679
-1.16725 -0.79197 -0.44801
-1.17344 -0.79481 -0.44997
-1.17561 -0.79493 -0.45074
-1.17702 -0.79453 -0.45104
-1.17923 -0.79467 -0.45165
-1.18148 -0.79483 -0.45210
-1.18527 -0.79602 -0.45332
-1.18827 -0.79668 -0.45423
-1.19127 -0.79733 -0.45514
-1.19424 -0.79795 -0.45621
-1.19724 -0.79859 -0.45712
-1.19787 -0.79765 -0.45712
-1.19453 -0.79407 -0.45561
-1.19115 -0.79046 -0.45425
-1.19336 -0.79057 -0.45486
-1.20113 -0.79436 -0.45759
-1.20176 -0.79341 -0.45759
-1.19996 -0.79086 -0.45685
-1.20301 -0.79151 -0.45760
-1.20598 -0.79211 -0.45867
-1.20421 -0.78959 -0.45776
-1.20328 -0.78762 -0.45700
-1.20709 -0.78875 -0.45822
-1.21170 -0.79041 -0.45973
-1.21632 -0.79205 -0.46125
-1.21774 -0.79161 -0.46156
-1.21757 -0.79013 -0.46126
-1.21979 -0.79020 -0.46187
-1.22361 -0.79131 -0.46308
-1.22508 -0.79089 -0.46323
-1.25082 -0.78394 -0.46935
-1.24820 -0.78093 -0.46814
-1.24720 -0.77894 -0.46754
-1.24939 -0.77894 -0.46831
-1.26267 -0.76118 -0.46849
-1.25919 -0.75772 -0.46698
-1.25815 -0.75575 -0.46637
-1.26197 -0.75669 -0.46775
-1.27810 -0.74055 -0.46962
-1.27946 -0.73999 -0.47009
-1.27761 -0.73758 -0.46902
-1.27407 -0.73419 -0.46751
-1.29148 -0.71866 -0.47031
-1.28788 -0.71533 -0.46880
-1.28674 -0.71337 -0.46836
-1.29068 -0.71422 -0.46941
-1.29760 -0.69156 -0.46780
-1.29645 -0.68965 -0.46719
-1.29779 -0.68905 -0.46766
-1.30679 -0.66773 -0.46695
-1.30557 -0.66581 -0.46651
-1.30439 -0.66392 -0.46590
-1.32647 -0.61841 -0.46619
-1.34130 -0.59732 -0.46777
-1.34089 -0.59588 -0.46747
-1.34312 -0.57174 -0.46494
-1.34444 -0.57106 -0.46525
-1.34840 -0.57149 -0.46647
-1.35411 -0.57265 -0.46829
-1.36152 -0.55195 -0.46837
-1.36024 -0.55018 -0.46760
-1.35890 -0.54840 -0.46700
-1.36944 -0.52652 -0.46799
-1.37074 -0.52579 -0.46829
-1.37843 -0.50275 -0.46773
-1.37972 -0.50199 -0.46804
-1.40403 -0.40181 -0.46619
-1.40160 -0.39992 -0.46528
-1.41016 -0.37602 -0.46592
-1.40866 -0.37443 -0.46516
-1.14223 -0.92875 -0.46880
-1.14731 -0.92245 -0.46882
-1.14803 -0.92155 -0.46882
-1.15500 -0.90499 -0.46751
-1.16675 -0.88354 -0.46620
-1.16669 -0.88205 -0.46590
-1.16666 -0.88059 -0.46544
-1.16720 -0.87669 -0.46484
-1.16789 -0.87577 -0.46485
-1.17159 -0.87711 -0.46622
-1.17151 -0.87562 -0.46592
-1.17143 -0.87413 -0.46562
-1.17288 -0.87377 -0.46593
-1.17353 -0.87282 -0.46609
-1.17421 -0.87190 -0.46609
-1.17490 -0.87098 -0.46609
-1.17630 -0.87059 -0.46656
-1.17775 -0.87023 -0.46687
-1.17767 -0.86874 -0.46657
-1.17762 -0.86728 -0.46611
-1.18060 -0.86805 -0.46702
-1.18282 -0.86825 -0.46763
-1.18196 -0.86619 -0.46703
-1.18034 -0.86357 -0.46612
-1.18102 -0.86264 -0.46612
-1.18247 -0.86227 -0.46643
-1.16255 -0.80631 -0.45118
-1.16244 -0.80488 -0.45072
-1.16386 -0.80450 -0.45103
-1.16763 -0.80575 -0.45225
-1.16089 -0.79705 -0.44892
-1.16313 -0.79724 -0.44937
-1.16687 -0.79844 -0.45075
-1.16749 -0.79752 -0.45075
-1.16423 -0.79394 -0.44908
-1.16406 -0.79249 -0.44878
-1.16784 -0.79371 -0.44999
-1.17394 -0.79651 -0.45228
-1.17694 -0.79718 -0.45319
-1.17757 -0.79625 -0.45319
-1.18056 -0.79692 -0.45411
-1.18356 -0.79759 -0.45502
-1.18415 -0.79663 -0.45518
-1.18556 -0.79622 -0.45549
-1.19015 -0.79794 -0.45701
-1.19236 -0.79806 -0.45762
-1.18903 -0.79447 -0.45610
-1.18728 -0.79195 -0.45520
-1.19266 -0.79418 -0.45702
-1.19646 -0.79534 -0.45824
-1.19391 -0.79229 -0.45703
-1.18977 -0.78819 -0.45521
-1.19913 -0.79303 -0.45855
-1.19816 -0.79104 -0.45795
-1.19883 -0.79012 -0.45779
-1.20259 -0.79124 -0.45917
-1.20560 -0.79186 -0.46008
-1.20623 -0.79091 -0.46009
-1.20689 -0.78998 -0.45993
-1.20986 -0.79057 -0.46100
-1.21292 -0.79120 -0.46176
-1.21434 -0.79076 -0.46207
-1.24393 -0.77962 -0.46853
-1.24131 -0.77662 -0.46731
-1.24196 -0.77567 -0.46716
-1.25888 -0.75889 -0.46920
-1.25703 -0.75643 -0.46829
-1.25926 -0.75641 -0.46890
-1.27242 -0.73592 -0.46927
-1.27465 -0.73587 -0.46988
-1.28924 -0.71608 -0.47053
-1.28647 -0.71322 -0.46932
-1.28619 -0.71174 -0.46902
-1.29799 -0.69177 -0.46970
-1.29516 -0.68896 -0.46849
-1.29482 -0.68747 -0.46835
-1.29865 -0.66357 -0.46597
-1.30083 -0.66339 -0.46674
-1.30304 -0.66324 -0.46735
-1.31559 -0.64253 -0.46771
-1.31438 -0.64066 -0.46710
-1.32475 -0.61888 -0.46716
-1.32783 -0.61905 -0.46808
-1.33469 -0.59438 -0.46740
-1.34217 -0.57009 -0.46639
-1.34701 -0.57090 -0.46792
-1.35136 -0.54536 -0.46616
-1.39096 -0.42432 -0.46573
-1.38852 -0.42238 -0.46497
-1.39340 -0.42266 -0.46650
-1.40101 -0.39975 -0.46718
-1.39863 -0.39788 -0.46611
-1.11104 -0.94022 -0.46516
-1.11323 -0.94057 -0.46577
-1.14464 -0.92031 -0.46967
-1.14536 -0.91941 -0.46968
-1.16475 -0.88202 -0.46750
-1.16468 -0.88053 -0.46720
-1.16761 -0.88130 -0.46828
-1.16584 -0.87423 -0.46630
-1.16652 -0.87332 -0.46631
-1.16717 -0.87237 -0.46647
-1.16789 -0.87148 -0.46631
-1.17010 -0.87170 -0.46692
-1.16849 -0.86908 -0.46601
-1.16841 -0.86759 -0.46571
-1.17062 -0.86781 -0.46632
-1.17130 -0.86689 -0.46633
-1.17045 -0.86484 -0.46572
-1.17270 -0.86508 -0.46617
-1.17410 -0.86469 -0.46664
-1.17482 -0.86380 -0.46648
-1.17704 -0.86400 -0.46710
-1.17767 -0.86305 -0.46726
-1.17758 -0.86155 -0.46696
-1.17826 -0.86062 -0.46696
-1.17971 -0.86026 -0.46727
-1.18265 -0.86098 -0.46834
-1.19456 -0.84113 -0.46763
-1.19366 -0.83909 -0.46703
-1.19359 -0.83763 -0.46657
-1.16546 -0.80969 -0.45409
-1.15984 -0.80443 -0.45165
-1.16043 -0.80349 -0.45181
-1.16342 -0.80419 -0.45273
-1.16640 -0.80490 -0.45365
-1.16782 -0.80452 -0.45395
-1.16339 -0.79741 -0.45168
-1.16323 -0.79596 -0.45137
-1.16775 -0.79770 -0.45305
-1.16917 -0.79731 -0.45336
-1.16905 -0.79588 -0.45291
-1.17125 -0.79603 -0.45352
-1.17424 -0.79671 -0.45444
-1.17723 -0.79738 -0.45536
-1.17786 -0.79645 -0.45536
-1.17849 -0.79552 -0.45536
-1.17991 -0.79512 -0.45567
-1.18373 -0.79635 -0.45674
-1.18673 -0.79701 -0.45765
-1.18736 -0.79607 -0.45766
-1.18478 -0.79299 -0.45659
-1.18545 -0.79208 -0.45644
-1.18765 -0.79220 -0.45705
-1.18986 -0.79232 -0.45767
-1.18811 -0.78980 -0.45676
-1.18635 -0.78728 -0.45584
-1.18931 -0.78789 -0.45692
-1.19474 -0.79013 -0.45859
-1.19933 -0.79181 -0.46012
-1.19833 -0.78979 -0.45967
-1.19899 -0.78887 -0.45952
-1.20518 -0.79158 -0.46165
-1.20576 -0.79061 -0.46181
-1.20718 -0.79017 -0.46212
-1.20940 -0.79026 -0.46274
-1.21078 -0.78980 -0.46320
-1.21300 -0.78988 -0.46381
-1.28672 -0.71335 -0.47171
-1.29303 -0.68783 -0.46948
-1.29184 -0.68590 -0.46903
-1.29839 -0.66087 -0.46726
-1.38051 -0.44626 -0.46649
-1.37996 -0.44488 -0.46619
-1.38116 -0.44407 -0.46665
-1.38894 -0.42251 -0.46686
-1.39201 -0.42224 -0.46778
-1.39325 -0.42142 -0.46809
-1.10980 -0.94066 -0.46721
-1.10836 -0.93794 -0.46630
-1.12731 -0.92400 -0.46835
-1.12509 -0.92070 -0.46713
-1.12360 -0.91801 -0.46622
-1.16018 -0.87141 -0.46605
-1.16002 -0.86987 -0.46607
-1.16222 -0.87010 -0.46668
-1.16367 -0.86975 -0.46699
-1.16206 -0.86713 -0.46608
-1.16121 -0.86508 -0.46547
-1.16342 -0.86530 -0.46608
-1.16486 -0.86496 -0.46639
-1.16626 -0.86458 -0.46686
-1.16618 -0.86310 -0.46655
-1.16838 -0.86331 -0.46717
-1.16983 -0.86296 -0.46748
-1.16974 -0.86147 -0.46717
-1.16965 -0.85999 -0.46687
-1.17109 -0.85964 -0.46718
-1.17023 -0.85759 -0.46657
-1.16860 -0.85498 -0.46565
-1.16850 -0.85350 -0.46535
-1.17763 -0.85874 -0.46872
-1.19012 -0.83801 -0.46817
-1.18845 -0.83543 -0.46726
-1.18837 -0.83397 -0.46680
-1.16312 -0.81351 -0.45655
-1.16610 -0.81423 -0.45747
-1.16834 -0.81443 -0.45793
-1.16273 -0.80915 -0.45548
-1.16020 -0.80604 -0.45442
-1.16088 -0.80515 -0.45426
-1.16308 -0.80532 -0.45488
-1.16449 -0.80494 -0.45519
-1.16595 -0.80459 -0.45534
-1.16075 -0.79695 -0.45275
-1.16294 -0.79711 -0.45337
-1.16514 -0.79726 -0.45398
-1.16734 -0.79742 -0.45460
-1.16954 -0.79757 -0.45521
-1.16935 -0.79608 -0.45506
-1.16918 -0.79462 -0.45476
-1.17143 -0.79480 -0.45522
-1.17599 -0.79654 -0.45675
-1.17737 -0.79612 -0.45722
-1.17405 -0.79253 -0.45569
-1.17546 -0.79213 -0.45600
-1.18083 -0.79439 -0.45784
-1.18145 -0.79346 -0.45784
-1.18366 -0.79359 -0.45846
-1.18582 -0.79368 -0.45923
-1.18407 -0.79116 -0.45831
-1.18153 -0.78811 -0.45709
-1.18378 -0.78826 -0.45755
-1.18598 -0.78838 -0.45816
-1.18815 -0.78847 -0.45893
-1.19194 -0.78963 -0.46016
-1.19654 -0.79132 -0.46170
-1.19799 -0.79093 -0.46185
-1.19941 -0.79051 -0.46216
-1.20083 -0.79008 -0.46247
-1.20229 -0.78968 -0.46262
-1.20450 -0.78978 -0.46324
-1.20752 -0.79039 -0.46416
-1.21128 -0.79149 -0.46554
-1.21514 -0.79265 -0.46661
-1.21979 -0.79431 -0.46799
-1.22042 -0.79335 -0.46799
-1.22704 -0.77039 -0.46622
-1.22361 -0.76689 -0.46470
-1.22664 -0.76744 -0.46562
-1.33932 -0.53927 -0.46551
-1.34838 -0.51599 -0.46573
-1.34879 -0.51493 -0.46573
-1.35790 -0.49284 -0.46641
-1.35918 -0.49209 -0.46672
-1.36051 -0.49136 -0.46687
-1.37455 -0.44433 -0.46638
-1.40129 -0.34303 -0.46580
-1.40151 -0.34191 -0.46595
-1.12115 -0.91894 -0.46701
-1.12187 -0.91806 -0.46701
-1.12185 -0.91658 -0.46671
-1.13302 -0.89496 -0.46540
-1.13447 -0.89466 -0.46570
-1.15360 -0.86506 -0.46487
-1.15428 -0.86415 -0.46488
-1.15724 -0.86495 -0.46580
-1.15796 -0.86407 -0.46565
-1.15936 -0.86370 -0.46611
-1.16080 -0.86336 -0.46642
-1.16071 -0.86188 -0.46612
-1.15986 -0.85983 -0.46551
-1.16207 -0.86005 -0.46613
-1.16504 -0.86084 -0.46705
-1.16418 -0.85879 -0.46644
-1.16251 -0.85615 -0.46568
-1.16548 -0.85693 -0.46660
-1.16846 -0.85770 -0.46753
-1.16990 -0.85735 -0.46784
-1.16750 -0.85418 -0.46661
-1.16583 -0.85154 -0.46585
-1.16880 -0.85230 -0.46677
-1.19524 -0.84161 -0.47159
-1.16055 -0.81308 -0.45732
-1.16041 -0.81162 -0.45702
-1.16495 -0.81343 -0.45856
-1.16637 -0.81305 -0.45887
-1.16463 -0.81047 -0.45810
-1.16218 -0.80741 -0.45672
-1.16121 -0.80538 -0.45626
-1.16263 -0.80500 -0.45658
-1.16561 -0.80571 -0.45750
-1.16859 -0.80641 -0.45842
-1.16923 -0.80549 -0.45843
-1.16034 -0.79667 -0.45428
-1.15940 -0.79468 -0.45367
-1.16159 -0.79483 -0.45429
-1.16615 -0.79660 -0.45583
-1.16992 -0.79783 -0.45706
-1.17055 -0.79690 -0.45706
-1.17122 -0.79600 -0.45691
-1.17184 -0.79508 -0.45692
-1.17089 -0.79309 -0.45630
-1.17231 -0.79270 -0.45661
-1.17455 -0.79286 -0.45708
-1.17517 -0.79194 -0.45708
-1.17501 -0.79048 -0.45677
-1.17721 -0.79061 -0.45739
-1.17862 -0.79021 -0.45770
-1.17841 -0.78872 -0.45755
-1.18066 -0.78888 -0.45801
-1.18361 -0.78950 -0.45909
-1.18582 -0.78962 -0.45971
-1.18723 -0.78921 -0.46002
-1.18865 -0.78880 -0.46033
-1.19161 -0.78941 -0.46141
-1.19541 -0.79057 -0.46264
-1.19996 -0.79222 -0.46434
-1.20647 -0.79107 -0.46573
-1.20546 -0.78904 -0.46527
-1.20851 -0.78968 -0.46604
-1.21152 -0.79029 -0.46697
-1.21055 -0.78829 -0.46635
-1.21033 -0.78679 -0.46621
-1.22761 -0.77210 -0.46841
-1.22822 -0.77113 -0.46842
-1.22636 -0.76862 -0.46766
-1.23823 -0.74777 -0.46694
-1.23800 -0.74631 -0.46663
-1.25425 -0.72805 -0.46839
-1.25400 -0.72658 -0.46808
-1.25457 -0.72559 -0.46809
-1.26880 -0.70604 -0.46939
-1.26686 -0.70365 -0.46847
-1.27153 -0.70494 -0.47016
-1.27885 -0.68158 -0.46853
-1.27939 -0.68057 -0.46853
-1.28335 -0.65448 -0.46567
-1.29666 -0.63202 -0.46635
-1.31627 -0.58494 -0.46634
-1.32890 -0.56322 -0.46701
-1.32671 -0.56106 -0.46609
-1.32803 -0.56039 -0.46640
-1.33308 -0.53798 -0.46538
-1.33174 -0.53622 -0.46477
-1.33393 -0.53588 -0.46539
-1.34781 -0.51578 -0.46762
-1.34733 -0.51438 -0.46731
-1.34773 -0.51332 -0.46731
-1.35735 -0.49022 -0.46753
-1.38912 -0.36572 -0.46551
-1.39028 -0.36485 -0.46597
-1.39241 -0.36424 -0.46659
-1.40189 -0.34201 -0.46799
-1.12078 -0.91717 -0.46813
-1.12080 -0.91572 -0.46767
-1.13345 -0.89675 -0.46742
-1.13416 -0.89586 -0.46743
-1.13411 -0.89438 -0.46712
-1.14642 -0.87382 -0.46626
-1.14866 -0.87410 -0.46672
-1.15395 -0.86391 -0.46614
-1.15463 -0.86300 -0.46614
-1.15683 -0.86323 -0.46676
-1.15751 -0.86232 -0.46676
-1.15742 -0.86084 -0.46645
-1.15657 -0.85880 -0.46584
-1.15877 -0.85902 -0.46646
-1.16021 -0.85868 -0.46677
-1.15859 -0.85607 -0.46585
-1.15845 -0.85457 -0.46570
-1.15993 -0.85425 -0.46586
-1.16056 -0.85331 -0.46602
-1.16127 -0.85243 -0.46586
-1.16193 -0.85151 -0.46586
-1.16180 -0.85001 -0.46572
-1.16170 -0.84853 -0.46541
-1.16390 -0.84873 -0.46603
-1.16108 -0.81346 -0.45856
-1.16016 -0.81145 -0.45794
-1.16626 -0.81435 -0.46010
-1.16691 -0.81343 -0.46010
-1.16364 -0.80979 -0.45857
-1.16267 -0.80775 -0.45811
-1.16331 -0.80684 -0.45811
-1.16395 -0.80592 -0.45812
-1.16532 -0.80551 -0.45858
-1.16831 -0.80621 -0.45951
-1.16566 -0.80167 -0.45797
-1.16393 -0.79914 -0.45705
-1.16456 -0.79822 -0.45705
-1.16519 -0.79730 -0.45706
-1.16582 -0.79638 -0.45706
-1.16487 -0.79438 -0.45645
-1.16471 -0.79293 -0.45614
-1.16691 -0.79308 -0.45676
-1.16837 -0.79272 -0.45692
-1.16741 -0.79073 -0.45631
-1.16804 -0.78981 -0.45631
-1.16866 -0.78889 -0.45631
-1.17165 -0.78956 -0.45724
-1.17464 -0.79023 -0.45816
-1.17684 -0.79036 -0.45878
-1.17509 -0.78784 -0.45786
-1.17650 -0.78744 -0.45817
-1.18029 -0.78863 -0.45941
-1.18249 -0.78875 -0.46003
-1.18390 -0.78835 -0.46034
-1.18928 -0.79057 -0.46219
-1.19466 -0.79279 -0.46404
-1.19528 -0.79185 -0.46404
-1.19586 -0.79087 -0.46420
-1.19966 -0.79203 -0.46543
-1.20516 -0.78885 -0.46637
-1.20574 -0.78787 -0.46653
-1.20875 -0.78848 -0.46746
-1.21017 -0.78804 -0.46777
-1.20999 -0.78657 -0.46747
-1.21930 -0.76687 -0.46628
-1.21990 -0.76591 -0.46629
-1.22292 -0.76646 -0.46721
-1.23810 -0.74903 -0.46850
-1.23625 -0.74658 -0.46758
-1.23842 -0.74656 -0.46836
-1.25056 -0.72591 -0.46858
-1.24701 -0.72254 -0.46704
-1.25005 -0.72298 -0.46797
-1.26876 -0.70733 -0.47080
-1.26267 -0.70263 -0.46834
-1.26401 -0.70207 -0.46880
-1.26872 -0.70338 -0.47035
-1.27548 -0.68107 -0.46871
-1.27350 -0.67872 -0.46779
-1.27319 -0.67727 -0.46748
-1.27372 -0.67627 -0.46748
-1.28248 -0.65531 -0.46692
-1.28214 -0.65387 -0.46662
-1.28350 -0.65329 -0.46693
-1.29314 -0.63156 -0.46700
-1.29193 -0.62971 -0.46638
-1.28990 -0.62747 -0.46530
-1.30518 -0.60849 -0.46737
-1.31471 -0.58548 -0.46681
-1.31599 -0.58481 -0.46728
-1.31384 -0.58262 -0.46636
-1.32239 -0.56046 -0.46611
-1.32458 -0.56016 -0.46673
-1.33749 -0.53854 -0.46834
-1.33620 -0.53680 -0.46757
-1.34527 -0.51359 -0.46764
-1.38213 -0.38965 -0.46688
-1.38249 -0.38857 -0.46673
-1.38096 -0.38697 -0.46612
-1.38901 -0.36452 -0.46676
-1.39114 -0.36390 -0.46738
-1.13242 -0.89449 -0.46775
-1.13014 -0.89124 -0.46653
-1.14473 -0.87395 -0.46689
-1.14315 -0.87133 -0.46597
-1.14307 -0.86985 -0.46566
-1.14527 -0.87010 -0.46628
-1.14991 -0.86229 -0.46615
-1.15134 -0.86195 -0.46647
-1.15202 -0.86105 -0.46647
-1.15117 -0.85900 -0.46586
-1.14955 -0.85640 -0.46493
-1.15103 -0.85609 -0.46509
-1.15476 -0.85745 -0.46632
-1.15696 -0.85768 -0.46694
-1.15533 -0.85507 -0.46602
-1.15600 -0.85416 -0.46602
-1.15974 -0.85551 -0.46726
-1.16198 -0.85576 -0.46772
-1.16035 -0.85316 -0.46680
-1.15799 -0.85002 -0.46541
-1.15708 -0.84796 -0.46496
-1.15929 -0.84817 -0.46558
-1.15996 -0.84725 -0.46558
-1.16216 -0.84746 -0.46620
-1.17133 -0.85273 -0.46943
-1.16080 -0.81326 -0.45964
-1.15758 -0.80964 -0.45794
-1.16364 -0.81251 -0.46026
-1.16740 -0.81377 -0.46150
-1.16413 -0.81013 -0.45996
-1.16243 -0.80758 -0.45904
-1.16463 -0.80775 -0.45965
-1.16839 -0.80900 -0.46089
-1.16825 -0.80753 -0.46059
-1.17041 -0.80766 -0.46136
-1.17104 -0.80674 -0.46136
-1.16776 -0.80312 -0.45982
-1.16526 -0.80004 -0.45859
-1.16432 -0.79805 -0.45798
-1.16490 -0.79710 -0.45814
-1.16636 -0.79674 -0.45829
-1.16541 -0.79475 -0.45768
-1.16289 -0.79169 -0.45645
-1.16112 -0.78914 -0.45568
-1.16410 -0.78983 -0.45660
-1.16945 -0.79211 -0.45846
-1.17165 -0.79225 -0.45908
-1.17069 -0.79026 -0.45847
-1.17215 -0.78990 -0.45862
-1.17514 -0.79056 -0.45955
-1.17651 -0.79014 -0.46002
-1.17796 -0.78977 -0.46018
-1.18099 -0.79045 -0.46095
-1.18241 -0.79005 -0.46126
-1.18145 -0.78806 -0.46065
-1.18524 -0.78923 -0.46188
-1.18982 -0.79093 -0.46343
-1.20256 -0.78715 -0.46623
-1.20712 -0.78877 -0.46793
-1.20858 -0.78837 -0.46809
-1.20836 -0.78687 -0.46794
-1.20814 -0.78536 -0.46779
-1.21819 -0.76617 -0.46707
-1.21960 -0.76572 -0.46738
-1.22423 -0.76728 -0.46893
-1.23612 -0.74784 -0.46915
-1.23671 -0.74686 -0.46915
-1.23812 -0.74638 -0.46946
-1.25271 -0.72716 -0.47061
-1.24835 -0.72331 -0.46876
-1.24480 -0.71995 -0.46721
-1.26268 -0.70394 -0.46959
-1.26236 -0.70246 -0.46944
-1.26379 -0.70195 -0.46959
-1.27605 -0.68137 -0.46996
-1.27327 -0.67860 -0.46857
-1.27124 -0.67624 -0.46781
-1.27877 -0.65341 -0.46679
-1.28267 -0.65414 -0.46803
-1.28238 -0.65272 -0.46756
-1.28945 -0.62976 -0.46670
-1.28652 -0.62708 -0.46547
-1.28701 -0.62607 -0.46547
-1.30327 -0.60760 -0.46738
-1.31617 -0.58613 -0.46837
-1.31484 -0.58430 -0.46791
-1.31183 -0.58173 -0.46668
-1.32289 -0.56068 -0.46767
-1.32338 -0.55966 -0.46752
-1.33242 -0.53772 -0.46758
-1.33368 -0.53700 -0.46805
-1.36637 -0.41211 -0.46497
-1.36669 -0.41103 -0.46497
-1.38001 -0.38905 -0.46720
-1.38214 -0.38848 -0.46783
-1.09187 -0.93287 -0.46655
-1.09116 -0.93078 -0.46594
-1.14298 -0.87261 -0.46721
-1.14291 -0.87114 -0.46691
-1.14279 -0.86964 -0.46676
-1.14721 -0.85886 -0.46617
-1.14788 -0.85796 -0.46618
-1.14860 -0.85708 -0.46602
-1.14927 -0.85618 -0.46603
-1.14994 -0.85528 -0.46603
-1.15367 -0.85664 -0.46727
-1.15361 -0.85520 -0.46681
-1.15123 -0.85203 -0.46557
-1.15185 -0.85110 -0.46573
-1.15409 -0.85135 -0.46620
-1.15706 -0.85213 -0.46713
-1.15538 -0.84951 -0.46636
-1.15609 -0.84863 -0.46620
-1.15829 -0.84884 -0.46682
-1.15973 -0.84849 -0.46714
-1.15886 -0.84645 -0.46652
-1.16179 -0.84719 -0.46761
-1.17476 -0.85523 -0.47256
-1.16125 -0.81357 -0.46118
-1.16569 -0.81394 -0.46227
-1.16399 -0.81139 -0.46135
-1.16311 -0.80941 -0.46058
-1.16370 -0.80847 -0.46073
-1.16434 -0.80755 -0.46074
-1.16419 -0.80609 -0.46043
-1.16483 -0.80517 -0.46043
-1.16781 -0.80587 -0.46136
-1.17154 -0.80708 -0.46276
-1.17139 -0.80561 -0.46245
-1.16701 -0.79854 -0.45999
-1.16450 -0.79547 -0.45875
-1.16194 -0.79238 -0.45767
-1.16257 -0.79147 -0.45767
-1.16315 -0.79052 -0.45783
-1.16381 -0.78963 -0.45768
-1.16679 -0.79031 -0.45861
-1.16505 -0.78779 -0.45768
-1.16804 -0.78847 -0.45861
-1.17339 -0.79073 -0.46048
-1.17480 -0.79034 -0.46079
-1.17464 -0.78888 -0.46048
-1.17605 -0.78848 -0.46079
-1.18141 -0.79073 -0.46265
-1.18445 -0.79141 -0.46343
-1.18665 -0.79153 -0.46405
-1.18965 -0.79217 -0.46498
-1.19842 -0.78579 -0.46625
-1.20138 -0.78638 -0.46733
-1.20518 -0.78751 -0.46857
-1.20740 -0.78760 -0.46919
-1.20802 -0.78664 -0.46920
-1.23799 -0.74763 -0.47103
-1.23776 -0.74616 -0.47072
-1.26735 -0.70654 -0.47255
-1.26380 -0.70326 -0.47084
-1.26430 -0.70223 -0.47100
-1.27234 -0.67939 -0.46998
-1.27035 -0.67704 -0.46906
-1.27088 -0.67605 -0.46906
-1.27634 -0.65090 -0.46727
-1.28706 -0.62734 -0.46687
-1.30889 -0.58043 -0.46684
-1.35679 -0.43505 -0.46569
-1.35894 -0.43456 -0.46631
-1.36780 -0.41254 -0.46684
-1.36899 -0.41172 -0.46731
-1.36931 -0.41064 -0.46731
-1.37905 -0.38761 -0.46799
-1.08802 -0.93106 -0.46625
-1.08369 -0.92588 -0.46408
-1.08586 -0.92626 -0.46471
-1.14114 -0.87121 -0.46785
-1.14031 -0.86916 -0.46723
-1.14764 -0.85777 -0.46711
-1.14603 -0.85517 -0.46619
-1.14670 -0.85427 -0.46619
-1.14817 -0.85396 -0.46635
-1.14575 -0.85076 -0.46526
-1.14493 -0.84876 -0.46449
-1.14788 -0.84956 -0.46542
-1.15012 -0.84981 -0.46589
-1.15079 -0.84891 -0.46589
-1.14988 -0.84685 -0.46543
-1.14982 -0.84541 -0.46497
-1.15278 -0.84620 -0.46590
-1.15574 -0.84698 -0.46683
