-1.55118 -0.70105 -0.26665
-1.54993 -0.69902 -0.26634
-1.55048 -0.69780 -0.26635
-1.55012 -0.69617 -0.26619
-1.55067 -0.69495 -0.26620
-1.55124 -0.69374 -0.26602
-1.55176 -0.69251 -0.26620
-1.55231 -0.69129 -0.26621
-1.55014 -0.68887 -0.26575
-1.55068 -0.68765 -0.26575
-1.55122 -0.68643 -0.26575
-1.55176 -0.68521 -0.26575
-1.55230 -0.68398 -0.26576
-1.54778 -0.65455 -0.26334
-1.54647 -0.65257 -0.26303
-1.54880 -0.65212 -0.26334
-1.54932 -0.65090 -0.26335
-1.54985 -0.64969 -0.26317
-1.54851 -0.64770 -0.26304
-1.54902 -0.64648 -0.26304
-1.54953 -0.64526 -0.26305
-1.54912 -0.64366 -0.26290
-1.54872 -0.64206 -0.26275
-1.54922 -0.64085 -0.26275
-1.54972 -0.63963 -0.26275
-1.54929 -0.63802 -0.26277
-1.54796 -0.63605 -0.26247
-1.54755 -0.63446 -0.26232
-1.54896 -0.63362 -0.26247
-1.55037 -0.63277 -0.26263
-1.54995 -0.63118 -0.26248
-1.55042 -0.62995 -0.26266
-1.55000 -0.62836 -0.26251
-1.54592 -0.62529 -0.26173
-1.54643 -0.62408 -0.26156
-1.55059 -0.62434 -0.26219
-1.54589 -0.59297 -0.25994
-1.54359 -0.59070 -0.25948
-1.54682 -0.59054 -0.25995
-1.54729 -0.58932 -0.25995
-1.54683 -0.58775 -0.25980
-1.54821 -0.58689 -0.25996
-1.54775 -0.58532 -0.25980
-1.54636 -0.58340 -0.25950
-1.54589 -0.58184 -0.25934
-1.54635 -0.58062 -0.25935
-1.54498 -0.57872 -0.25887
-1.54358 -0.57682 -0.25856
-1.54774 -0.57698 -0.25918
-1.54372 -0.84789 -0.27766
-1.55308 -0.85144 -0.27903
-1.55548 -0.85116 -0.27935
-1.55702 -0.85041 -0.27951
-1.55682 -0.84871 -0.27935
-1.55575 -0.84653 -0.27904
-1.55468 -0.84436 -0.27874
-1.55537 -0.84315 -0.27855
-1.55691 -0.84239 -0.27871
-1.55757 -0.84116 -0.27872
-1.55736 -0.83947 -0.27856
-1.55628 -0.83730 -0.27826
-1.55607 -0.83561 -0.27810
-1.55673 -0.83439 -0.27811
-1.55651 -0.83270 -0.27796
-1.55629 -0.83101 -0.27780
-1.55607 -0.82932 -0.27765
-1.55495 -0.82716 -0.27753
-1.55386 -0.82501 -0.27722
-1.55361 -0.82331 -0.27725
-1.55338 -0.82163 -0.27710
-1.55402 -0.82041 -0.27710
-1.55467 -0.81919 -0.27710
-1.55531 -0.81797 -0.27711
-1.55682 -0.81720 -0.27727
-1.55659 -0.81552 -0.27711
-1.55460 -0.81293 -0.27665
-1.55437 -0.81125 -0.27650
-1.55410 -0.80956 -0.27653
-1.55301 -0.80744 -0.27604
-1.55364 -0.80622 -0.27604
-1.55691 -0.80636 -0.27651
-1.56719 -0.81012 -0.27823
-1.54390 -0.79501 -0.27369
-1.55403 -0.77721 -0.27389
-1.55199 -0.77466 -0.27343
-1.55257 -0.77343 -0.27361
-1.55232 -0.77178 -0.27328
-1.55113 -0.76967 -0.27315
-1.55085 -0.76801 -0.27300
-1.55145 -0.76679 -0.27300
-1.55294 -0.76601 -0.27316
-1.55265 -0.76436 -0.27301
-1.55325 -0.76314 -0.27301
-1.55388 -0.76193 -0.27283
-1.55445 -0.76069 -0.27302
-1.55416 -0.75904 -0.27286
-1.55387 -0.75738 -0.27271
-1.55360 -0.75574 -0.27238
-1.55241 -0.75366 -0.27207
-1.55211 -0.75201 -0.27192
-1.55270 -0.75079 -0.27192
-1.55416 -0.74999 -0.27226
-1.55119 -0.74705 -0.27164
-1.55177 -0.74583 -0.27164
-1.55773 -0.74719 -0.27240
-1.55432 -0.71722 -0.27014
-1.54950 -0.71352 -0.26921
-1.54916 -0.71189 -0.26906
-1.55151 -0.71150 -0.26937
-1.55207 -0.71028 -0.26938
-1.54993 -0.70783 -0.26891
-1.55141 -0.70703 -0.26889
-1.55197 -0.70581 -0.26889
-1.55072 -0.70378 -0.26859
-1.55037 -0.70215 -0.26843
-1.55095 -0.70094 -0.26826
-1.55057 -0.69931 -0.26828
-1.55022 -0.69768 -0.26813
-1.55077 -0.69646 -0.26813
-1.55042 -0.69484 -0.26798
-1.55008 -0.69323 -0.26765
-1.54877 -0.69118 -0.26770
-1.55112 -0.69076 -0.26801
-1.55166 -0.68954 -0.26802
-1.55037 -0.68751 -0.26788
-1.54911 -0.68549 -0.26758
-1.55148 -0.68508 -0.26771
-1.56196 -0.68824 -0.26943
-1.54932 -0.65520 -0.26559
-1.54801 -0.65322 -0.26528
-1.54850 -0.65199 -0.26546
-1.54719 -0.65000 -0.26515
-1.54679 -0.64841 -0.26500
-1.54730 -0.64719 -0.26500
-1.54872 -0.64635 -0.26516
-1.54922 -0.64513 -0.26516
-1.54879 -0.64352 -0.26519
-1.54838 -0.64193 -0.26503
-1.54800 -0.64034 -0.26470
-1.54759 -0.63875 -0.26455
-1.54718 -0.63715 -0.26440
-1.54677 -0.63556 -0.26425
-1.54635 -0.63397 -0.26409
-1.54685 -0.63275 -0.26410
-1.54737 -0.63155 -0.26392
-1.54878 -0.63070 -0.26408
-1.54928 -0.62948 -0.26408
-1.54886 -0.62789 -0.26393
-1.54843 -0.62631 -0.26378
-1.54801 -0.62472 -0.26362
-1.55036 -0.62425 -0.26377
-1.54425 -0.59374 -0.26152
-1.54195 -0.59146 -0.26106
-1.54334 -0.59060 -0.26121
-1.54565 -0.59009 -0.26153
-1.54614 -0.58888 -0.26136
-1.54472 -0.58696 -0.26122
-1.54613 -0.58610 -0.26121
-1.54842 -0.58557 -0.26170
-1.54705 -0.58367 -0.26121
-1.54474 -0.58140 -0.26075
-1.54427 -0.57984 -0.26060
-1.54380 -0.57828 -0.26044
-1.54240 -0.57638 -0.26013
-1.55211 -0.57861 -0.26170
-1.54868 -0.85062 -0.28026
-1.55282 -0.85130 -0.28089
-1.55349 -0.85007 -0.28090
-1.55416 -0.84885 -0.28090
-1.55485 -0.84763 -0.28072
-1.55552 -0.84641 -0.28072
-1.55532 -0.84471 -0.28057
-1.55598 -0.84348 -0.28057
-1.55578 -0.84178 -0.28042
-1.55470 -0.83962 -0.28010
-1.55363 -0.83745 -0.27980
-1.55339 -0.83574 -0.27983
-1.55492 -0.83499 -0.27999
-1.55644 -0.83423 -0.28015
-1.55536 -0.83208 -0.27984
-1.55514 -0.83039 -0.27968
-1.55489 -0.82869 -0.27971
-1.55551 -0.82746 -0.27990
-1.55445 -0.82532 -0.27941
-1.55335 -0.82317 -0.27910
-1.55312 -0.82149 -0.27894
-1.55376 -0.82027 -0.27895
-1.55443 -0.81907 -0.27876
-1.55333 -0.81692 -0.27846
-1.55394 -0.81569 -0.27864
-1.55633 -0.81539 -0.27896
-1.55347 -0.81233 -0.27833
-1.55238 -0.81021 -0.27784
-1.55302 -0.80899 -0.27784
-1.55365 -0.80777 -0.27785
-1.55341 -0.80610 -0.27769
-1.55580 -0.80578 -0.27801
-1.55818 -0.80547 -0.27833
-1.55530 -0.80243 -0.27770
-1.55066 -0.79850 -0.27676
-1.55041 -0.79683 -0.27661
-1.55189 -0.79605 -0.27696
-1.55076 -0.79393 -0.27664
-1.54962 -0.79181 -0.27633
-1.55024 -0.79059 -0.27634
-1.55262 -0.79027 -0.27665
-1.55148 -0.78815 -0.27634
-1.54855 -0.78514 -0.27590
-1.54476 -0.78169 -0.27512
-1.54625 -0.78092 -0.27528
-1.54632 -0.77639 -0.27498
-1.55168 -0.77450 -0.27561
-1.54966 -0.77198 -0.27496
-1.55292 -0.77208 -0.27544
-1.55353 -0.77086 -0.27544
-1.55148 -0.76832 -0.27497
-1.55208 -0.76710 -0.27498
-1.55271 -0.76590 -0.27480
-1.55242 -0.76424 -0.27464
-1.55125 -0.76215 -0.27433
-1.55364 -0.76181 -0.27447
-1.55422 -0.76058 -0.27465
-1.55393 -0.75892 -0.27450
-1.55275 -0.75684 -0.27419
-1.55334 -0.75562 -0.27419
-1.55215 -0.75354 -0.27388
-1.55186 -0.75189 -0.27373
-1.55245 -0.75067 -0.27373
-1.55303 -0.74945 -0.27373
-1.55184 -0.74737 -0.27342
-1.55243 -0.74615 -0.27342
-1.55566 -0.74620 -0.27408
-1.56693 -0.75009 -0.27597
-1.55140 -0.71587 -0.27129
-1.54927 -0.71341 -0.27082
-1.54890 -0.71177 -0.27085
-1.55036 -0.71097 -0.27101
-1.55092 -0.70975 -0.27101
-1.55147 -0.70853 -0.27102
-1.55113 -0.70690 -0.27086
-1.55078 -0.70527 -0.27071
-1.54951 -0.70323 -0.27058
-1.54826 -0.70120 -0.27026
-1.55061 -0.70079 -0.27058
-1.55206 -0.69998 -0.27074
-1.55171 -0.69835 -0.27059
-1.54956 -0.69592 -0.27012
-1.55101 -0.69510 -0.27028
-1.55063 -0.69347 -0.27030
-1.54849 -0.69105 -0.26966
-1.54993 -0.69024 -0.26982
-1.54957 -0.68861 -0.26966
-1.55012 -0.68740 -0.26967
-1.54885 -0.68538 -0.26936
-1.55119 -0.68496 -0.26967
-1.54446 -0.65315 -0.26692
-1.54409 -0.65156 -0.26659
-1.54551 -0.65073 -0.26675
-1.54693 -0.64990 -0.26691
-1.54653 -0.64830 -0.26676
-1.54613 -0.64670 -0.26661
-1.54755 -0.64586 -0.26677
-1.54808 -0.64466 -0.26659
-1.54767 -0.64306 -0.26644
-1.54724 -0.64145 -0.26646
-1.54686 -0.63987 -0.26613
-1.54739 -0.63866 -0.26596
-1.54695 -0.63706 -0.26598
-1.54653 -0.63547 -0.26582
-1.54703 -0.63425 -0.26583
-1.54845 -0.63341 -0.26599
-1.54803 -0.63182 -0.26583
-1.54761 -0.63022 -0.26568
-1.54810 -0.62901 -0.26568
-1.54860 -0.62779 -0.26569
-1.54632 -0.62545 -0.26539
-1.54500 -0.62350 -0.26491
-1.54547 -0.62228 -0.26509
-1.55329 -0.62401 -0.26634
-1.55324 -0.59719 -0.26465
-1.54541 -0.59279 -0.26325
-1.54495 -0.59122 -0.26309
-1.54541 -0.59000 -0.26309
-1.54680 -0.58914 -0.26325
-1.54631 -0.58756 -0.26327
-1.54495 -0.58565 -0.26279
-1.54541 -0.58444 -0.26279
-1.54495 -0.58287 -0.26264
-1.54448 -0.58131 -0.26248
-1.54396 -0.57973 -0.26267
-1.54352 -0.57818 -0.26235
-1.54395 -0.57695 -0.26252
-1.56383 -0.58298 -0.26583
-1.54496 -0.84858 -0.28149
-1.55256 -0.85115 -0.28275
-1.55323 -0.84993 -0.28275
-1.55390 -0.84870 -0.28276
-1.55543 -0.84795 -0.28292
-1.55437 -0.84578 -0.28261
-1.55243 -0.84314 -0.28214
-1.55309 -0.84191 -0.28214
-1.55376 -0.84069 -0.28214
-1.55355 -0.83899 -0.28199
-1.55334 -0.83730 -0.28183
-1.55574 -0.83701 -0.28215
-1.55988 -0.83765 -0.28279
-1.55708 -0.83458 -0.28197
-1.55251 -0.83056 -0.28103
-1.55229 -0.82887 -0.28088
-1.55122 -0.82674 -0.28038
-1.54838 -0.82366 -0.27975
-1.54990 -0.82291 -0.27991
-1.55227 -0.82260 -0.28042
-1.55468 -0.82232 -0.28055
-1.55446 -0.82064 -0.28040
-1.55335 -0.81849 -0.28008
-1.55225 -0.81636 -0.27977
-1.55289 -0.81514 -0.27977
-1.55350 -0.81390 -0.27996
-1.55151 -0.81131 -0.27949
-1.55040 -0.80917 -0.27918
-1.55188 -0.80840 -0.27952
-1.55339 -0.80764 -0.27969
-1.55140 -0.80505 -0.27921
-1.55203 -0.80383 -0.27922
-1.55178 -0.80216 -0.27906
-1.55066 -0.80003 -0.27875
-1.55041 -0.79836 -0.27860
-1.55015 -0.79669 -0.27844
-1.54990 -0.79502 -0.27829
-1.55143 -0.79427 -0.27826
-1.55202 -0.79304 -0.27845
-1.55001 -0.79047 -0.27798
-1.54889 -0.78837 -0.27749
-1.54951 -0.78715 -0.27749
-1.55013 -0.78594 -0.27749
-1.55075 -0.78472 -0.27749
-1.55136 -0.78350 -0.27750
-1.55109 -0.78184 -0.27734
-1.54906 -0.77929 -0.27687
-1.54791 -0.77718 -0.27656
-1.55293 -0.77818 -0.27735
-1.55354 -0.77696 -0.27736
-1.55062 -0.77397 -0.27673
-1.54943 -0.77186 -0.27660
-1.55092 -0.77108 -0.27676
-1.55243 -0.77032 -0.27674
-1.55215 -0.76866 -0.27658
-1.55096 -0.76655 -0.27645
-1.54979 -0.76446 -0.27614
-1.55128 -0.76368 -0.27630
-1.55187 -0.76246 -0.27630
-1.55156 -0.76079 -0.27633
-1.55130 -0.75915 -0.27599
-1.55186 -0.75792 -0.27618
-1.55157 -0.75627 -0.27602
-1.55128 -0.75462 -0.27587
-1.55187 -0.75340 -0.27587
-1.55160 -0.75176 -0.27554
-1.55219 -0.75054 -0.27554
-1.55097 -0.74845 -0.27541
-1.55069 -0.74682 -0.27507
-1.55131 -0.74561 -0.27490
-1.55545 -0.74610 -0.27553
-1.55505 -0.71904 -0.27387
-1.54926 -0.71489 -0.27331
-1.54808 -0.71287 -0.27264
-1.54867 -0.71167 -0.27246
-1.54920 -0.71044 -0.27264
-1.54889 -0.70882 -0.27231
-1.54854 -0.70719 -0.27215
-1.55000 -0.70639 -0.27231
-1.54968 -0.70477 -0.27198
-1.54841 -0.70273 -0.27185
-1.54808 -0.70111 -0.27151
-1.55043 -0.70071 -0.27183
-1.55098 -0.69949 -0.27183
-1.54973 -0.69746 -0.27152
-1.54938 -0.69584 -0.27137
-1.54992 -0.69462 -0.27137
-1.54957 -0.69300 -0.27122
-1.54921 -0.69137 -0.27106
-1.55066 -0.69056 -0.27122
-1.54939 -0.68853 -0.27091
-1.54632 -0.68571 -0.27028
-1.54684 -0.68449 -0.27046
-1.55460 -0.68646 -0.27173
-1.54706 -0.65425 -0.26828
-1.54482 -0.65187 -0.26798
-1.54624 -0.65104 -0.26814
-1.54675 -0.64982 -0.26815
-1.54635 -0.64822 -0.26799
-1.54686 -0.64700 -0.26799
-1.54828 -0.64617 -0.26816
-1.54787 -0.64457 -0.26800
-1.54747 -0.64297 -0.26785
-1.54706 -0.64138 -0.26769
-1.54662 -0.63977 -0.26771
-1.54621 -0.63818 -0.26756
-1.54671 -0.63696 -0.26756
-1.54719 -0.63574 -0.26774
-1.54677 -0.63414 -0.26758
-1.54636 -0.63255 -0.26743
-1.54685 -0.63134 -0.26743
-1.54918 -0.63086 -0.26775
-1.54876 -0.62927 -0.26760
-1.54651 -0.62694 -0.26713
-1.54520 -0.62499 -0.26664
-1.54752 -0.62452 -0.26696
-1.55534 -0.62625 -0.26822
-1.54192 -0.59284 -0.26451
-1.54238 -0.59162 -0.26451
-1.54282 -0.59040 -0.26469
-1.54236 -0.58883 -0.26453
-1.54285 -0.58763 -0.26436
-1.54423 -0.58677 -0.26452
-1.54559 -0.58589 -0.26486
-1.54423 -0.58399 -0.26437
-1.54284 -0.58208 -0.26405
-1.54332 -0.58087 -0.26388
-1.54563 -0.58035 -0.26420
-1.54424 -0.57844 -0.26389
-1.54469 -0.57723 -0.26389
-1.53368 -0.84395 -0.28125
-1.55081 -0.85179 -0.28408
-1.55235 -0.85104 -0.28424
-1.55389 -0.85029 -0.28440
-1.55366 -0.84858 -0.28443
-1.55436 -0.84736 -0.28425
-1.55502 -0.84614 -0.28425
-1.55566 -0.84490 -0.28444
-1.55636 -0.84368 -0.28426
-1.55613 -0.84197 -0.28429
-1.55418 -0.83934 -0.28381
-1.55311 -0.83717 -0.28350
-1.55377 -0.83595 -0.28351
-1.54613 -0.82714 -0.28195
-1.55069 -0.82489 -0.28244
-1.55133 -0.82367 -0.28244
-1.55111 -0.82199 -0.28229
-1.54998 -0.81983 -0.28216
-1.54803 -0.81724 -0.28150
-1.54867 -0.81603 -0.28150
-1.54844 -0.81435 -0.28135
-1.54995 -0.81359 -0.28151
-1.55234 -0.81329 -0.28183
-1.55038 -0.81071 -0.28117
-1.54751 -0.80767 -0.28054
-1.54815 -0.80645 -0.28054
-1.55316 -0.80751 -0.28134
-1.55294 -0.80585 -0.28100
-1.55182 -0.80372 -0.28069
-1.55157 -0.80205 -0.28053
-1.55045 -0.79993 -0.28022
-1.55020 -0.79826 -0.28006
-1.55082 -0.79704 -0.28007
-1.54969 -0.79492 -0.27975
-1.55119 -0.79415 -0.27991
-1.55182 -0.79293 -0.27992
-1.54980 -0.79037 -0.27944
-1.55042 -0.78915 -0.27945
-1.55101 -0.78792 -0.27963
-1.55160 -0.78668 -0.27982
-1.55048 -0.78459 -0.27932
-1.55019 -0.78291 -0.27935
-1.55081 -0.78169 -0.27935
-1.55054 -0.78003 -0.27919
-1.55027 -0.77837 -0.27904
-1.55000 -0.77671 -0.27888
-1.55060 -0.77549 -0.27889
-1.54947 -0.77340 -0.27839
-1.55005 -0.77217 -0.27858
-1.55066 -0.77095 -0.27858
-1.54952 -0.76887 -0.27808
-1.55012 -0.76765 -0.27809
-1.55073 -0.76643 -0.27809
-1.54956 -0.76434 -0.27777
-1.54927 -0.76269 -0.27762
-1.54898 -0.76104 -0.27746
-1.55044 -0.76024 -0.27781
-1.55106 -0.75904 -0.27763
-1.54988 -0.75695 -0.27731
-1.54959 -0.75530 -0.27716
-1.55018 -0.75408 -0.27716
-1.54988 -0.75243 -0.27700
-1.55045 -0.75120 -0.27719
-1.54926 -0.74913 -0.27687
-1.54807 -0.74705 -0.27656
-1.54776 -0.74540 -0.27640
-1.54924 -0.74462 -0.27657
-1.55516 -0.74596 -0.27752
-1.55041 -0.74218 -0.27657
-1.54386 -0.73756 -0.27530
-1.54352 -0.73591 -0.27533
-1.54735 -0.73475 -0.27581
-1.54731 -0.71399 -0.27406
-1.54790 -0.71279 -0.27389
-1.54936 -0.71198 -0.27405
-1.54899 -0.71034 -0.27407
-1.54865 -0.70871 -0.27392
-1.55010 -0.70791 -0.27408
-1.54976 -0.70628 -0.27392
-1.54849 -0.70423 -0.27379
-1.54727 -0.70221 -0.27330
-1.54870 -0.70139 -0.27364
-1.54925 -0.70017 -0.27364
-1.54800 -0.69814 -0.27332
-1.54854 -0.69693 -0.27333
-1.54909 -0.69571 -0.27333
-1.54964 -0.69449 -0.27333
-1.54835 -0.69245 -0.27320
-1.54800 -0.69083 -0.27304
-1.54856 -0.68963 -0.27287
-1.54911 -0.68841 -0.27287
-1.54784 -0.68639 -0.27255
-1.54657 -0.68437 -0.27224
-1.54711 -0.68315 -0.27224
-1.54984 -0.65686 -0.27120
-1.54396 -0.65294 -0.27027
-1.54359 -0.65135 -0.26994
-1.54499 -0.65051 -0.27027
-1.54644 -0.64969 -0.27026
-1.54695 -0.64847 -0.27026
-1.54563 -0.64649 -0.26995
-1.54432 -0.64452 -0.26963
-1.54756 -0.64444 -0.27011
-1.54809 -0.64323 -0.26994
-1.54677 -0.64126 -0.26963
-1.54636 -0.63967 -0.26947
-1.54687 -0.63845 -0.26947
-1.54737 -0.63723 -0.26948
-1.54607 -0.63527 -0.26899
-1.54565 -0.63368 -0.26883
-1.54615 -0.63247 -0.26883
-1.54665 -0.63125 -0.26884
-1.54714 -0.63003 -0.26884
-1.54581 -0.62807 -0.26852
-1.54538 -0.62649 -0.26837
-1.54585 -0.62526 -0.26855
-1.54817 -0.62478 -0.26887
-1.54674 -0.59609 -0.26702
-1.54168 -0.59275 -0.26607
-1.54123 -0.59118 -0.26591
-1.54261 -0.59032 -0.26607
-1.54400 -0.58946 -0.26623
-1.54444 -0.58823 -0.26641
-1.54400 -0.58668 -0.26608
-1.54259 -0.58476 -0.26594
-1.54212 -0.58319 -0.26578
-1.54258 -0.58198 -0.26579
-1.54211 -0.58042 -0.26563
-1.54165 -0.57886 -0.26547
-1.54118 -0.57730 -0.26532
-1.54345 -0.57677 -0.26581
-1.55686 -0.58038 -0.26804
-1.53696 -0.84576 -0.28317
-1.55060 -0.85167 -0.28556
-1.55300 -0.85140 -0.28589
-1.55368 -0.85017 -0.28589
-1.55524 -0.84944 -0.28586
-1.55504 -0.84774 -0.28571
-1.55484 -0.84604 -0.28555
-1.55288 -0.84338 -0.28526
-1.55357 -0.84217 -0.28508
-1.55423 -0.84095 -0.28508
-1.55403 -0.83925 -0.28493
-1.55292 -0.83707 -0.28480
-1.55445 -0.83632 -0.28496
-1.55861 -0.83698 -0.28542
-1.54555 -0.80665 -0.28169
-1.55733 -0.80968 -0.28361
-1.55095 -0.80482 -0.28234
-1.54986 -0.80271 -0.28184
-1.54961 -0.80104 -0.28168
-1.55024 -0.79982 -0.28168
-1.55174 -0.79905 -0.28185
-1.55061 -0.79693 -0.28153
-1.55039 -0.79527 -0.28119
-1.55098 -0.79404 -0.28138
-1.55251 -0.79329 -0.28136
-1.55137 -0.79117 -0.28104
-1.55024 -0.78905 -0.28072
-1.55261 -0.78873 -0.28105
-1.55150 -0.78663 -0.28055
-1.55121 -0.78495 -0.28057
-1.55182 -0.78373 -0.28058
-1.55244 -0.78251 -0.28058
-1.55129 -0.78041 -0.28026
-1.55014 -0.77830 -0.27995
-1.54986 -0.77664 -0.27979
-1.55050 -0.77544 -0.27961
-1.55285 -0.77509 -0.28012
-1.55166 -0.77297 -0.27998
-1.55050 -0.77088 -0.27967
-1.55022 -0.76922 -0.27951
-1.54991 -0.76755 -0.27954
-1.54786 -0.76502 -0.27906
-1.54846 -0.76380 -0.27907
-1.54909 -0.76260 -0.27889
-1.54968 -0.76138 -0.27889
-1.55028 -0.76016 -0.27889
-1.54910 -0.75808 -0.27858
-1.54881 -0.75643 -0.27842
-1.54940 -0.75521 -0.27842
-1.54911 -0.75356 -0.27827
-1.54792 -0.75148 -0.27795
-1.54762 -0.74984 -0.27780
-1.54732 -0.74819 -0.27764
-1.54791 -0.74697 -0.27764
-1.54763 -0.74534 -0.27731
-1.54822 -0.74413 -0.27731
-1.54969 -0.74334 -0.27747
-1.54758 -0.74083 -0.27718
-1.54549 -0.73833 -0.27670
-1.54785 -0.73797 -0.27702
-1.55021 -0.73760 -0.27735
-1.54722 -0.73469 -0.27671
-1.54512 -0.73220 -0.27623
-1.54569 -0.73099 -0.27624
-1.54537 -0.72935 -0.27608
-1.54324 -0.72687 -0.27579
-1.54292 -0.72523 -0.27563
-1.54527 -0.72486 -0.27595
-1.54674 -0.72406 -0.27611
-1.54373 -0.72118 -0.27548
-1.54038 -0.71667 -0.27469
-1.54363 -0.71671 -0.27517
-1.54890 -0.71472 -0.27581
-1.54856 -0.71309 -0.27566
-1.54915 -0.71189 -0.27548
-1.54791 -0.70984 -0.27517
-1.54667 -0.70781 -0.27485
-1.54723 -0.70659 -0.27485
-1.54778 -0.70538 -0.27486
-1.54839 -0.70418 -0.27450
-1.54801 -0.70255 -0.27453
-1.54767 -0.70092 -0.27437
-1.54822 -0.69971 -0.27437
-1.54876 -0.69849 -0.27437
-1.54841 -0.69687 -0.27422
-1.54896 -0.69565 -0.27422
-1.54768 -0.69361 -0.27408
-1.54732 -0.69199 -0.27393
-1.54786 -0.69077 -0.27393
-1.55021 -0.69036 -0.27425
-1.54892 -0.68832 -0.27411
-1.54678 -0.68592 -0.27346
-1.54639 -0.68429 -0.27348
-1.55054 -0.68467 -0.27412
-1.54880 -0.65642 -0.27193
-1.54477 -0.65328 -0.27113
-1.54435 -0.65167 -0.27115
-1.54486 -0.65046 -0.27115
-1.54628 -0.64962 -0.27132
-1.54588 -0.64802 -0.27116
-1.54548 -0.64643 -0.27100
-1.54507 -0.64483 -0.27085
-1.54555 -0.64360 -0.27103
-1.54515 -0.64201 -0.27087
-1.54565 -0.64079 -0.27087
-1.54618 -0.63959 -0.27070
-1.54577 -0.63800 -0.27054
-1.54624 -0.63677 -0.27072
-1.54583 -0.63518 -0.27056
-1.54544 -0.63360 -0.27023
-1.54503 -0.63201 -0.27008
-1.54458 -0.63041 -0.27009
-1.54416 -0.62882 -0.26994
-1.54468 -0.62762 -0.26977
-1.54426 -0.62603 -0.26961
-1.54475 -0.62482 -0.26961
-1.54618 -0.62398 -0.26960
-1.54377 -0.59494 -0.26793
-1.54058 -0.59232 -0.26712
-1.54194 -0.59145 -0.26746
-1.54243 -0.59025 -0.26729
-1.54289 -0.58904 -0.26729
-1.54336 -0.58782 -0.26729
-1.54289 -0.58626 -0.26714
-1.54338 -0.58505 -0.26697
-1.54197 -0.58313 -0.26682
-1.54245 -0.58193 -0.26665
-1.54291 -0.58072 -0.26665
-1.54244 -0.57915 -0.26650
-1.54197 -0.57760 -0.26634
-1.54240 -0.57637 -0.26652
-1.55025 -0.57792 -0.26780
-1.53960 -0.57257 -0.26588
-1.53934 -0.84707 -0.28512
-1.55126 -0.85203 -0.28721
-1.55193 -0.85081 -0.28721
-1.55260 -0.84959 -0.28722
-1.55324 -0.84835 -0.28741
-1.55391 -0.84712 -0.28741
-1.55371 -0.84542 -0.28725
-1.55351 -0.84372 -0.28709
-1.55330 -0.84203 -0.28694
-1.55310 -0.84033 -0.28678
-1.55287 -0.83862 -0.28681
-1.55442 -0.83788 -0.28679
-1.55943 -0.83899 -0.28759
-1.55210 -0.80851 -0.28428
-1.54748 -0.80456 -0.28332
-1.54899 -0.80380 -0.28348
-1.55050 -0.80304 -0.28364
-1.55025 -0.80137 -0.28349
-1.54997 -0.79968 -0.28351
-1.55060 -0.79846 -0.28352
-1.55035 -0.79679 -0.28336
-1.55010 -0.79512 -0.28320
-1.54984 -0.79346 -0.28304
-1.55222 -0.79314 -0.28337
-1.55284 -0.79192 -0.28337
-1.55258 -0.79025 -0.28321
-1.55320 -0.78903 -0.28322
-1.55121 -0.78648 -0.28256
-1.55006 -0.78437 -0.28224
-1.55068 -0.78316 -0.28224
-1.55217 -0.78238 -0.28241
-1.55193 -0.78073 -0.28207
-1.55078 -0.77863 -0.28175
-1.54963 -0.77652 -0.28143
-1.55024 -0.77531 -0.28143
-1.55349 -0.77541 -0.28192
-1.54968 -0.77199 -0.28112
-1.54410 -0.76770 -0.28000
-1.54645 -0.76735 -0.28051
-1.54707 -0.76614 -0.28033
-1.54502 -0.76362 -0.27985
-1.54562 -0.76240 -0.27985
-1.54445 -0.76032 -0.27954
-1.54504 -0.75910 -0.27954
-1.54738 -0.75874 -0.28004
-1.54795 -0.75752 -0.28023
-1.54855 -0.75630 -0.28023
-1.54648 -0.75379 -0.27975
-1.54441 -0.75127 -0.27927
-1.54500 -0.75006 -0.27928
-1.54558 -0.74885 -0.27928
-1.54528 -0.74720 -0.27912
-1.54676 -0.74642 -0.27929
-1.54826 -0.74564 -0.27927
-1.54884 -0.74443 -0.27927
-1.54765 -0.74235 -0.27896
-1.54823 -0.74114 -0.27896
-1.54881 -0.73992 -0.27896
-1.54761 -0.73786 -0.27864
-1.54730 -0.73622 -0.27849
-1.54787 -0.73500 -0.27849
-1.54845 -0.73378 -0.27849
-1.54635 -0.73130 -0.27801
-1.54514 -0.72924 -0.27770
-1.54660 -0.72845 -0.27786
-1.54541 -0.72641 -0.27736
-1.54417 -0.72434 -0.27722
-1.54563 -0.72355 -0.27739
-1.54709 -0.72275 -0.27755
-1.54495 -0.72027 -0.27725
-1.54462 -0.71864 -0.27709
-1.54697 -0.71826 -0.27742
-1.55112 -0.71870 -0.27806
-1.54810 -0.71583 -0.27742
-1.54776 -0.71420 -0.27727
-1.54830 -0.71297 -0.27745
-1.54796 -0.71134 -0.27729
-1.54675 -0.70931 -0.27679
-1.54638 -0.70768 -0.27681
-1.54694 -0.70646 -0.27682
-1.54749 -0.70524 -0.27682
-1.54717 -0.70363 -0.27648
-1.54683 -0.70201 -0.27633
-1.54648 -0.70039 -0.27617
-1.54703 -0.69917 -0.27617
-1.54757 -0.69795 -0.27618
-1.54815 -0.69675 -0.27600
-1.54690 -0.69472 -0.27568
-1.54654 -0.69310 -0.27553
-1.54708 -0.69188 -0.27553
-1.54853 -0.69107 -0.27569
-1.55000 -0.69026 -0.27568
-1.54693 -0.68744 -0.27504
-1.54657 -0.68582 -0.27488
-1.54891 -0.68541 -0.27520
-1.54945 -0.65670 -0.27386
-1.54362 -0.65280 -0.27256
-1.54414 -0.65158 -0.27256
-1.54647 -0.65113 -0.27288
-1.54516 -0.64915 -0.27257
-1.54476 -0.64755 -0.27241
-1.54527 -0.64634 -0.27241
-1.54577 -0.64512 -0.27242
-1.54537 -0.64353 -0.27226
-1.54587 -0.64231 -0.27226
-1.54544 -0.64071 -0.27228
-1.54594 -0.63949 -0.27228
-1.54553 -0.63790 -0.27212
-1.54603 -0.63668 -0.27213
-1.54653 -0.63547 -0.27213
-1.54612 -0.63387 -0.27197
-1.54568 -0.63227 -0.27199
-1.54435 -0.63031 -0.27167
-1.54393 -0.62872 -0.27151
-1.54442 -0.62751 -0.27152
-1.54491 -0.62630 -0.27152
-1.54449 -0.62471 -0.27136
-1.54589 -0.62386 -0.27153
-1.54632 -0.59593 -0.26980
-1.54311 -0.59330 -0.26916
-1.54173 -0.59137 -0.26885
-1.54219 -0.59016 -0.26885
-1.54263 -0.58894 -0.26902
-1.54309 -0.58772 -0.26903
-1.54079 -0.58546 -0.26855
-1.54125 -0.58425 -0.26855
-1.54170 -0.58303 -0.26855
-1.54216 -0.58182 -0.26856
-1.54169 -0.58026 -0.26840
-1.54033 -0.57836 -0.26791
-1.54263 -0.57784 -0.26823
-1.54678 -0.57801 -0.26888
-1.54354 -0.57542 -0.26824
-1.54608 -0.85078 -0.28770
-1.55110 -0.85195 -0.28832
-1.55088 -0.85023 -0.28835
-1.55244 -0.84950 -0.28833
-1.55484 -0.84922 -0.28866
-1.55548 -0.84798 -0.28885
-1.55442 -0.84581 -0.28853
-1.55248 -0.84317 -0.28805
-1.55228 -0.84147 -0.28789
-1.55294 -0.84025 -0.28789
-1.55271 -0.83854 -0.28792
-1.55250 -0.83684 -0.28776
-1.55577 -0.83702 -0.28825
-1.56512 -0.84047 -0.28986
-1.54995 -0.80585 -0.28490
-1.54883 -0.80372 -0.28458
-1.54943 -0.80249 -0.28477
-1.55006 -0.80127 -0.28477
-1.54981 -0.79960 -0.28461
-1.55044 -0.79838 -0.28462
-1.55107 -0.79716 -0.28462
-1.55079 -0.79548 -0.28464
-1.55141 -0.79426 -0.28465
-1.55116 -0.79259 -0.28449
-1.55090 -0.79093 -0.28433
-1.55152 -0.78971 -0.28433
-1.55126 -0.78804 -0.28418
-1.55100 -0.78638 -0.28402
-1.55073 -0.78471 -0.28386
-1.54959 -0.78260 -0.28354
-1.54932 -0.78094 -0.28338
-1.54905 -0.77928 -0.28322
-1.54878 -0.77762 -0.28307
-1.54939 -0.77640 -0.28307
-1.55002 -0.77520 -0.28289
-1.54389 -0.76759 -0.28145
-1.54484 -0.76353 -0.28112
-1.54278 -0.76100 -0.28064
-1.54338 -0.75979 -0.28064
-1.54574 -0.75945 -0.28097
-1.54723 -0.75867 -0.28113
-1.54605 -0.75658 -0.28081
-1.54575 -0.75494 -0.28065
-1.54721 -0.75414 -0.28100
-1.54780 -0.75292 -0.28100
-1.54484 -0.74998 -0.28036
-1.54365 -0.74791 -0.28004
-1.54512 -0.74713 -0.28020
-1.55015 -0.74806 -0.28101
-1.54983 -0.74640 -0.28103
-1.54780 -0.74392 -0.28019
-1.54660 -0.74185 -0.27987
-1.54713 -0.74061 -0.28024
-1.54771 -0.73940 -0.28024
-1.54742 -0.73777 -0.27990
-1.54711 -0.73613 -0.27975
-1.54769 -0.73491 -0.27975
-1.54737 -0.73327 -0.27959
-1.54616 -0.73121 -0.27927
-1.54674 -0.73000 -0.27927
-1.54731 -0.72878 -0.27928
-1.54788 -0.72757 -0.27928
-1.54756 -0.72593 -0.27912
-1.54723 -0.72430 -0.27896
-1.54693 -0.72268 -0.27863
-1.54750 -0.72146 -0.27863
-1.54894 -0.72065 -0.27897
-1.54861 -0.71902 -0.27881
-1.54469 -0.71572 -0.27801
-1.54346 -0.71368 -0.27769
-1.54581 -0.71330 -0.27802
-1.54637 -0.71208 -0.27802
-1.54603 -0.71045 -0.27786
-1.54569 -0.70883 -0.27770
-1.54446 -0.70679 -0.27739
-1.54409 -0.70516 -0.27741
-1.54643 -0.70476 -0.27773
-1.54609 -0.70314 -0.27757
-1.54661 -0.70191 -0.27775
-1.54719 -0.70071 -0.27758
-1.54594 -0.69868 -0.27726
-1.54466 -0.69664 -0.27712
-1.54524 -0.69544 -0.27694
-1.54576 -0.69421 -0.27712
-1.54633 -0.69301 -0.27695
-1.54687 -0.69179 -0.27695
-1.54742 -0.69057 -0.27696
-1.54706 -0.68895 -0.27680
-1.54579 -0.68693 -0.27648
-1.54543 -0.68532 -0.27632
-1.54690 -0.68451 -0.27631
-1.55014 -0.68449 -0.27679
-1.55068 -0.68327 -0.27680
-1.54311 -0.67849 -0.27517
-1.53913 -0.67529 -0.27437
-1.53785 -0.67329 -0.27405
-1.54199 -0.67366 -0.27470
-1.54252 -0.67245 -0.27470
-1.54290 -0.65392 -0.27396
-1.54341 -0.65271 -0.27397
-1.54392 -0.65149 -0.27397
-1.54444 -0.65028 -0.27397
-1.54586 -0.64945 -0.27414
-1.54639 -0.64824 -0.27396
-1.54599 -0.64664 -0.27381
-1.54559 -0.64505 -0.27365
-1.54609 -0.64383 -0.27365
-1.54660 -0.64261 -0.27365
-1.54528 -0.64064 -0.27333
-1.54487 -0.63905 -0.27317
-1.54537 -0.63783 -0.27318
-1.54587 -0.63662 -0.27318
-1.54546 -0.63502 -0.27302
-1.54596 -0.63381 -0.27303
-1.54554 -0.63222 -0.27287
-1.54419 -0.63025 -0.27272
-1.54468 -0.62903 -0.27272
-1.54426 -0.62745 -0.27257
-1.54201 -0.62512 -0.27209
-1.54247 -0.62389 -0.27226
-1.54848 -0.62491 -0.27306
-1.54064 -0.59374 -0.26988
-1.54018 -0.59217 -0.26972
-1.54065 -0.59096 -0.26972
-1.54203 -0.59010 -0.26989
-1.54339 -0.58923 -0.27023
-1.54293 -0.58766 -0.27007
-1.54247 -0.58610 -0.26991
-1.54291 -0.58488 -0.27009
-1.54339 -0.58367 -0.26992
-1.54200 -0.58176 -0.26959
-1.54059 -0.57984 -0.26945
-1.54012 -0.57828 -0.26929
-1.54057 -0.57707 -0.26929
-1.54287 -0.57655 -0.26962
-1.54243 -0.57500 -0.26929
-1.53455 -0.57069 -0.26784
-1.54241 -0.84876 -0.28854
-1.55086 -0.85181 -0.29000
-1.55156 -0.85061 -0.28981
-1.55223 -0.84938 -0.28982
-1.55290 -0.84816 -0.28982
-1.55356 -0.84693 -0.28982
-1.55250 -0.84476 -0.28950
-1.55232 -0.84308 -0.28916
-1.55209 -0.84137 -0.28919
-1.55275 -0.84015 -0.28919
-1.55168 -0.83798 -0.28887
-1.55150 -0.83630 -0.28853
-1.55995 -0.83927 -0.29017
-1.55151 -0.80666 -0.28651
-1.54689 -0.80271 -0.28554
-1.54927 -0.80241 -0.28587
-1.55166 -0.80209 -0.28619
-1.55141 -0.80042 -0.28603
-1.54940 -0.79785 -0.28555
-1.54915 -0.79618 -0.28539
-1.54975 -0.79495 -0.28558
-1.55040 -0.79374 -0.28540
-1.55100 -0.79251 -0.28559
-1.55074 -0.79085 -0.28543
-1.54960 -0.78873 -0.28511
-1.54934 -0.78707 -0.28495
-1.54996 -0.78585 -0.28495
-1.54969 -0.78419 -0.28479
-1.54943 -0.78252 -0.28463
-1.55001 -0.78129 -0.28482
-1.55063 -0.78007 -0.28482
-1.54947 -0.77797 -0.28450
-1.54920 -0.77631 -0.28434
-1.54981 -0.77509 -0.28435
-1.54435 -0.74825 -0.28146
-1.54733 -0.74669 -0.28161
-1.54436 -0.74376 -0.28097
-1.54583 -0.74298 -0.28113
-1.54728 -0.74218 -0.28148
-1.54697 -0.74054 -0.28132
-1.54663 -0.73888 -0.28134
-1.54635 -0.73725 -0.28100
-1.54514 -0.73519 -0.28068
-1.54569 -0.73396 -0.28086
-1.54805 -0.73359 -0.28119
-1.54863 -0.73238 -0.28119
-1.54742 -0.73032 -0.28087
-1.54712 -0.72870 -0.28053
-1.54770 -0.72748 -0.28054
-1.54737 -0.72584 -0.28038
-1.54615 -0.72379 -0.28006
-1.54672 -0.72258 -0.28006
-1.54729 -0.72136 -0.28006
-1.54609 -0.71933 -0.27956
-1.54576 -0.71769 -0.27941
-1.54632 -0.71648 -0.27941
-1.54686 -0.71525 -0.27959
-1.54655 -0.71364 -0.27925
-1.54529 -0.71158 -0.27911
-1.54585 -0.71037 -0.27911
-1.54551 -0.70874 -0.27896
-1.54247 -0.70589 -0.27831
-1.54213 -0.70427 -0.27815
-1.54268 -0.70305 -0.27815
-1.54323 -0.70184 -0.27816
-1.54466 -0.70102 -0.27850
-1.54611 -0.70022 -0.27867
-1.54576 -0.69860 -0.27851
-1.54450 -0.69657 -0.27819
-1.54415 -0.69495 -0.27803
-1.54470 -0.69373 -0.27803
-1.54612 -0.69291 -0.27837
-1.54666 -0.69169 -0.27838
-1.54540 -0.68967 -0.27805
-1.54504 -0.68805 -0.27790
-1.54558 -0.68684 -0.27790
-1.54434 -0.68484 -0.27740
-1.54398 -0.68322 -0.27724
-1.54632 -0.68280 -0.27757
-1.54595 -0.68119 -0.27741
-1.54380 -0.67879 -0.27675
-1.54343 -0.67718 -0.27659
-1.54397 -0.67597 -0.27659
-1.54178 -0.67357 -0.27611
-1.54050 -0.67157 -0.27579
-1.54287 -0.67115 -0.27594
-1.54518 -0.67071 -0.27644
-1.54392 -0.66873 -0.27594
-1.54263 -0.66673 -0.27563
-1.54134 -0.66473 -0.27530
-1.54093 -0.66312 -0.27532
-1.53876 -0.66075 -0.27466
-1.53925 -0.65953 -0.27484
-1.54340 -0.65987 -0.27549
-1.54571 -0.65942 -0.27600
-1.54441 -0.65743 -0.27568
-1.54492 -0.65621 -0.27568
-1.54544 -0.65500 -0.27568
-1.54414 -0.65301 -0.27536
-1.54374 -0.65141 -0.27520
-1.54422 -0.65019 -0.27538
-1.54473 -0.64897 -0.27538
-1.54345 -0.64701 -0.27488
-1.54396 -0.64579 -0.27489
-1.54446 -0.64458 -0.27489
-1.54406 -0.64298 -0.27473
-1.54274 -0.64101 -0.27441
-1.54233 -0.63942 -0.27425
-1.54377 -0.63859 -0.27424
-1.54428 -0.63738 -0.27424
-1.54478 -0.63616 -0.27425
-1.54528 -0.63495 -0.27425
-1.54486 -0.63336 -0.27409
-1.54444 -0.63177 -0.27393
-1.54311 -0.62981 -0.27361
-1.54087 -0.62748 -0.27313
-1.54136 -0.62627 -0.27313
-1.54368 -0.62579 -0.27346
-1.54509 -0.62495 -0.27362
-1.54832 -0.62484 -0.27411
-1.54045 -0.59367 -0.27109
-1.53816 -0.59139 -0.27061
-1.53954 -0.59054 -0.27077
-1.54185 -0.59003 -0.27110
-1.54139 -0.58846 -0.27094
-1.54001 -0.58655 -0.27062
-1.53955 -0.58499 -0.27046
-1.54093 -0.58413 -0.27063
-1.54231 -0.58326 -0.27079
-1.54184 -0.58170 -0.27063
-1.54138 -0.58014 -0.27048
-1.53906 -0.57789 -0.26999
-1.54041 -0.57701 -0.27033
-1.54271 -0.57649 -0.27066
-1.53944 -0.57389 -0.27018
-1.53634 -0.84700 -0.28904
-1.54824 -0.85197 -0.29115
-1.55151 -0.85217 -0.29165
-1.55305 -0.85142 -0.29181
-1.55201 -0.84926 -0.29130
-1.55268 -0.84804 -0.29131
-1.55248 -0.84634 -0.29115
-1.55315 -0.84512 -0.29115
-1.55211 -0.84296 -0.29064
-1.55190 -0.84127 -0.29048
-1.55083 -0.83910 -0.29016
-1.55062 -0.83741 -0.29000
-1.55213 -0.83664 -0.29035
-1.55800 -0.83822 -0.29133
-1.55592 -0.81050 -0.28895
-1.54867 -0.80518 -0.28749
-1.54755 -0.80306 -0.28717
-1.54818 -0.80184 -0.28717
-1.54969 -0.80108 -0.28734
-1.55032 -0.79986 -0.28734
-1.54919 -0.79774 -0.28702
-1.54982 -0.79652 -0.28702
-1.55044 -0.79530 -0.28702
-1.55016 -0.79362 -0.28705
-1.54902 -0.79151 -0.28672
-1.54965 -0.79029 -0.28673
-1.54941 -0.78864 -0.28639
-1.54910 -0.78694 -0.28659
-1.54884 -0.78528 -0.28643
-1.54857 -0.78362 -0.28627
-1.55007 -0.78285 -0.28644
-1.55068 -0.78163 -0.28644
-1.54953 -0.77952 -0.28612
-1.54750 -0.77698 -0.28563
-1.54722 -0.77532 -0.28547
-1.55489 -0.77763 -0.28678
-1.54326 -0.74323 -0.28225
-1.54381 -0.74201 -0.28243
-1.54709 -0.74209 -0.28274
-1.54764 -0.74086 -0.28292
-1.54555 -0.73837 -0.28244
-1.54613 -0.73715 -0.28244
-1.54758 -0.73635 -0.28279
-1.54815 -0.73513 -0.28279
-1.54697 -0.73308 -0.28229
-1.54576 -0.73103 -0.28197
-1.54810 -0.73064 -0.28247
-1.54688 -0.72858 -0.28215
-1.54745 -0.72737 -0.28215
-1.54713 -0.72573 -0.28199
-1.54594 -0.72369 -0.28149
-1.54651 -0.72248 -0.28149
-1.54618 -0.72084 -0.28134
-1.54672 -0.71962 -0.28152
-1.54555 -0.71760 -0.28084
-1.54519 -0.71596 -0.28086
-1.54667 -0.71517 -0.28084
-1.54992 -0.71519 -0.28133
-1.55051 -0.71399 -0.28116
-1.54474 -0.70986 -0.28038
-1.54263 -0.70742 -0.27972
-1.54316 -0.70620 -0.27990
-1.54371 -0.70499 -0.27990
-1.54247 -0.70296 -0.27958
-1.54212 -0.70134 -0.27942
-1.54447 -0.70094 -0.27975
-1.54320 -0.69890 -0.27960
-1.54284 -0.69728 -0.27944
-1.54429 -0.69647 -0.27961
-1.54484 -0.69526 -0.27961
-1.54268 -0.69283 -0.27913
-1.54143 -0.69081 -0.27880
-1.54374 -0.69039 -0.27931
-1.54429 -0.68917 -0.27931
-1.54393 -0.68756 -0.27915
-1.54356 -0.68594 -0.27899
-1.54323 -0.68434 -0.27866
-1.54376 -0.68313 -0.27866
-1.54340 -0.68151 -0.27850
-1.54306 -0.67991 -0.27816
-1.54269 -0.67830 -0.27800
-1.54412 -0.67749 -0.27817
-1.54556 -0.67667 -0.27833
-1.54426 -0.67465 -0.27819
-1.54210 -0.67226 -0.27753
-1.54084 -0.67027 -0.27703
-1.54315 -0.66983 -0.27753
-1.54458 -0.66901 -0.27770
-1.54330 -0.66702 -0.27738
-1.54292 -0.66541 -0.27722
-1.54165 -0.66343 -0.27672
-1.54036 -0.66144 -0.27640
-1.54267 -0.66099 -0.27690
-1.54319 -0.65978 -0.27690
-1.54280 -0.65817 -0.27674
-1.54150 -0.65619 -0.27642
-1.54292 -0.65536 -0.27659
-1.54341 -0.65414 -0.27676
-1.54301 -0.65254 -0.27660
-1.54353 -0.65132 -0.27661
-1.54313 -0.64973 -0.27645
-1.54182 -0.64775 -0.27613
-1.54233 -0.64653 -0.27613
-1.54283 -0.64532 -0.27613
-1.54243 -0.64373 -0.27597
-1.54385 -0.64289 -0.27614
-1.54344 -0.64130 -0.27598
-1.54215 -0.63934 -0.27548
-1.54174 -0.63775 -0.27532
-1.54315 -0.63692 -0.27548
-1.54547 -0.63645 -0.27581
-1.54506 -0.63486 -0.27565
-1.54373 -0.63290 -0.27533
-1.54332 -0.63131 -0.27517
-1.54199 -0.62935 -0.27485
-1.54157 -0.62776 -0.27469
-1.54297 -0.62692 -0.27486
-1.54347 -0.62571 -0.27486
-1.54487 -0.62486 -0.27502
-1.54902 -0.62513 -0.27568
-1.53441 -0.61643 -0.27309
-1.54530 -0.59693 -0.27345
-1.54116 -0.59394 -0.27264
-1.54071 -0.59237 -0.27248
-1.54117 -0.59116 -0.27249
-1.54164 -0.58995 -0.27249
-1.53933 -0.58768 -0.27200
-1.53887 -0.58612 -0.27184
-1.53933 -0.58491 -0.27185
-1.54071 -0.58405 -0.27201
-1.54117 -0.58283 -0.27202
-1.54071 -0.58127 -0.27186
-1.54024 -0.57971 -0.27170
-1.53977 -0.57815 -0.27154
-1.54020 -0.57693 -0.27171
-1.54250 -0.57641 -0.27204
-1.54018 -0.57416 -0.27155
-1.52583 -0.56745 -0.26895
-1.53958 -0.84879 -0.29117
-1.54806 -0.85187 -0.29245
-1.55043 -0.85158 -0.29297
-1.55113 -0.85037 -0.29279
-1.55180 -0.84915 -0.29279
-1.55163 -0.84746 -0.29244
-1.55056 -0.84530 -0.29212
-1.54949 -0.84313 -0.29180
-1.54929 -0.84143 -0.29164
-1.54995 -0.84021 -0.29164
-1.54975 -0.83852 -0.29148
-1.54954 -0.83683 -0.29132
-1.55367 -0.83748 -0.29198
-1.55154 -0.80977 -0.28995
-1.54518 -0.80491 -0.28864
-1.54583 -0.80371 -0.28847
-1.54734 -0.80295 -0.28863
-1.54885 -0.80218 -0.28880
-1.54772 -0.80006 -0.28847
-1.54838 -0.79886 -0.28829
-1.54900 -0.79764 -0.28830
-1.54963 -0.79642 -0.28830
-1.54938 -0.79476 -0.28814
-1.54909 -0.79307 -0.28816
-1.54972 -0.79186 -0.28817
-1.54858 -0.78974 -0.28784
-1.54920 -0.78853 -0.28785
-1.54891 -0.78685 -0.28787
-1.54777 -0.78474 -0.28754
-1.54753 -0.78309 -0.28720
-1.54814 -0.78187 -0.28720
-1.54873 -0.78065 -0.28739
-1.54758 -0.77854 -0.28707
-1.54731 -0.77688 -0.28691
-1.54792 -0.77567 -0.28691
-1.55291 -0.77664 -0.28791
-1.54693 -0.74650 -0.28432
-1.54393 -0.74356 -0.28385
-1.54451 -0.74235 -0.28385
-1.54599 -0.74156 -0.28402
-1.54657 -0.74034 -0.28402
-1.54537 -0.73828 -0.28370
-1.54506 -0.73664 -0.28354
-1.54561 -0.73541 -0.28372
-1.54440 -0.73335 -0.28340
-1.54498 -0.73214 -0.28340
-1.54552 -0.73091 -0.28358
-1.54699 -0.73012 -0.28375
-1.54667 -0.72848 -0.28359
-1.54727 -0.72728 -0.28341
-1.54694 -0.72564 -0.28325
-1.54573 -0.72359 -0.28293
-1.54629 -0.72238 -0.28293
-1.54686 -0.72116 -0.28293
-1.54656 -0.71954 -0.28259
-1.54531 -0.71748 -0.28245
-1.54587 -0.71627 -0.28245
-1.54914 -0.71631 -0.28276
-1.53941 -0.69719 -0.28019
-1.54086 -0.69638 -0.28036
-1.54230 -0.69558 -0.28053
-1.54015 -0.69315 -0.28004
-1.53887 -0.69112 -0.27989
-1.54031 -0.69031 -0.28006
-1.54266 -0.68990 -0.28039
-1.54500 -0.68949 -0.28072
-1.54554 -0.68828 -0.28072
-1.54245 -0.68545 -0.28025
-1.54211 -0.68385 -0.27991
-1.54352 -0.68302 -0.28025
-1.54318 -0.68142 -0.27992
-1.54191 -0.67941 -0.27959
-1.54245 -0.67820 -0.27959
-1.54391 -0.67739 -0.27958
-1.54354 -0.67578 -0.27942
-1.54316 -0.67417 -0.27926
-1.54188 -0.67217 -0.27894
-1.54422 -0.67174 -0.27927
-1.54478 -0.67054 -0.27910
-1.54349 -0.66854 -0.27877
-1.54402 -0.66732 -0.27877
-1.54363 -0.66572 -0.27862
-1.54144 -0.66334 -0.27813
-1.54196 -0.66212 -0.27813
-1.54248 -0.66091 -0.27813
-1.54481 -0.66047 -0.27846
-1.54352 -0.65848 -0.27814
-1.54131 -0.65611 -0.27765
-1.54182 -0.65490 -0.27765
-1.54322 -0.65406 -0.27800
-1.54283 -0.65246 -0.27784
-1.54240 -0.65085 -0.27785
-1.54203 -0.64926 -0.27752
-1.54251 -0.64804 -0.27769
-1.54211 -0.64645 -0.27753
-1.54257 -0.64521 -0.27789
-1.54313 -0.64402 -0.27754
-1.54272 -0.64243 -0.27738
-1.54231 -0.64083 -0.27722
-1.54282 -0.63962 -0.27722
-1.54241 -0.63803 -0.27706
-1.54291 -0.63682 -0.27706
-1.54341 -0.63560 -0.27707
-1.54391 -0.63439 -0.27707
-1.54261 -0.63243 -0.27657
-1.54219 -0.63085 -0.27641
-1.54086 -0.62889 -0.27608
-1.54229 -0.62806 -0.27608
-1.54185 -0.62646 -0.27609
-1.54051 -0.62451 -0.27577
-1.54008 -0.62293 -0.27560
-1.54149 -0.62208 -0.27577
-1.54106 -0.62050 -0.27561
-1.53786 -0.61781 -0.27513
-1.53746 -0.61624 -0.27480
-1.53791 -0.61502 -0.27498
-1.53842 -0.61382 -0.27481
-1.53888 -0.61260 -0.27498
-1.53752 -0.61066 -0.27466
-1.53709 -0.60909 -0.27450
-1.53662 -0.60751 -0.27451
-1.53621 -0.60595 -0.27418
-1.53852 -0.60546 -0.27450
-1.53988 -0.60460 -0.27485
-1.53852 -0.60267 -0.27452
-1.53991 -0.60182 -0.27469
-1.53353 -0.59654 -0.27321
-1.53124 -0.59427 -0.27272
-1.54597 -0.59719 -0.27518
-1.53816 -0.59278 -0.27371
-1.53773 -0.59123 -0.27338
-1.53912 -0.59037 -0.27354
-1.54050 -0.58951 -0.27371
-1.53912 -0.58760 -0.27339
-1.53866 -0.58603 -0.27323
-1.53915 -0.58483 -0.27306
-1.53960 -0.58362 -0.27306
-1.54006 -0.58241 -0.27306
-1.54052 -0.58120 -0.27307
-1.54005 -0.57964 -0.27291
-1.53774 -0.57739 -0.27242
-1.54186 -0.57755 -0.27325
-1.54139 -0.57600 -0.27309
-1.52797 -0.56961 -0.27063
-1.53179 -0.84607 -0.29133
-1.54541 -0.85200 -0.29379
-1.54781 -0.85173 -0.29412
-1.54938 -0.85100 -0.29411
-1.54918 -0.84930 -0.29394
-1.54898 -0.84761 -0.29378
-1.54965 -0.84639 -0.29379
-1.55035 -0.84518 -0.29360
-1.55101 -0.84395 -0.29361
-1.55168 -0.84273 -0.29361
-1.55147 -0.84103 -0.29345
-1.54953 -0.83840 -0.29296
-1.54846 -0.83624 -0.29264
-1.55085 -0.83596 -0.29297
-1.54671 -0.80571 -0.29044
-1.54647 -0.80403 -0.29028
-1.54712 -0.80283 -0.29010
-1.54775 -0.80162 -0.29010
-1.54841 -0.80041 -0.28992
-1.54901 -0.79919 -0.29011
-1.54964 -0.79797 -0.29011
-1.54939 -0.79630 -0.28995
-1.54823 -0.79417 -0.28980
-1.54800 -0.79251 -0.28946
-1.54947 -0.79173 -0.28981
-1.54836 -0.78963 -0.28930
-1.54808 -0.78795 -0.28932
-1.54693 -0.78585 -0.28900
-1.54843 -0.78508 -0.28917
-1.54905 -0.78386 -0.28917
-1.54790 -0.78175 -0.28884
-1.54761 -0.78008 -0.28886
-1.54734 -0.77842 -0.28870
-1.54618 -0.77632 -0.28838
-1.54856 -0.77599 -0.28871
-1.54491 -0.74552 -0.28561
-1.54283 -0.74303 -0.28512
-1.54430 -0.74224 -0.28529
-1.54577 -0.74145 -0.28546
-1.54632 -0.74023 -0.28564
-1.54512 -0.73816 -0.28531
-1.54570 -0.73695 -0.28532
-1.54358 -0.73445 -0.28501
-1.54416 -0.73323 -0.28501
-1.54473 -0.73202 -0.28501
-1.54531 -0.73081 -0.28502
-1.54588 -0.72959 -0.28502
-1.54559 -0.72797 -0.28468
-1.54437 -0.72592 -0.28435
-1.54494 -0.72471 -0.28436
-1.54551 -0.72349 -0.28436
-1.54608 -0.72228 -0.28436
-1.54664 -0.72106 -0.28437
-1.54724 -0.71986 -0.28419
-1.54598 -0.71780 -0.28404
-1.54568 -0.71618 -0.28370
-1.54893 -0.71621 -0.28420
-1.54584 -0.68695 -0.28232
-1.54280 -0.68415 -0.28149
-1.54333 -0.68294 -0.28149
-1.54387 -0.68172 -0.28150
-1.54441 -0.68051 -0.28150
-1.54316 -0.67851 -0.28100
-1.54279 -0.67690 -0.28084
-1.54332 -0.67569 -0.28084
-1.54295 -0.67408 -0.28068
-1.54350 -0.67288 -0.28051
-1.54494 -0.67205 -0.28067
-1.54456 -0.67045 -0.28051
-1.54328 -0.66845 -0.28019
-1.54380 -0.66723 -0.28019
-1.54067 -0.66444 -0.27971
-1.54122 -0.66324 -0.27954
-1.54174 -0.66203 -0.27954
-1.54224 -0.66081 -0.27972
-1.54276 -0.65959 -0.27972
-1.54327 -0.65838 -0.27973
-1.54195 -0.65638 -0.27958
-1.54249 -0.65518 -0.27940
-1.54482 -0.65473 -0.27973
-1.54531 -0.65351 -0.27991
-1.54037 -0.64999 -0.27893
-1.53994 -0.64839 -0.27894
-1.54048 -0.64719 -0.27877
-1.54008 -0.64559 -0.27861
-1.53967 -0.64400 -0.27845
-1.53927 -0.64241 -0.27829
-1.54068 -0.64158 -0.27845
-1.54028 -0.63999 -0.27829
-1.53990 -0.63841 -0.27796
-1.54040 -0.63720 -0.27796
-1.54090 -0.63598 -0.27796
-1.54048 -0.63440 -0.27780
-1.54098 -0.63318 -0.27780
-1.54148 -0.63197 -0.27781
-1.54106 -0.63039 -0.27764
-1.53882 -0.62806 -0.27715
-1.53931 -0.62684 -0.27716
-1.53980 -0.62563 -0.27716
-1.53846 -0.62368 -0.27683
-1.53898 -0.62248 -0.27666
-1.53761 -0.62052 -0.27651
-1.53624 -0.61856 -0.27636
-1.53673 -0.61736 -0.27636
-1.53905 -0.61688 -0.27669
-1.53859 -0.61529 -0.27671
-1.53815 -0.61372 -0.27654
-1.53866 -0.61252 -0.27637
-1.53912 -0.61130 -0.27655
-1.53960 -0.61008 -0.27655
-1.54007 -0.60887 -0.27656
-1.54055 -0.60766 -0.27656
-1.53828 -0.60537 -0.27607
-1.53694 -0.60345 -0.27557
-1.53647 -0.60187 -0.27558
-1.53694 -0.60066 -0.27558
-1.53925 -0.60016 -0.27592
-1.54067 -0.59932 -0.27591
-1.53930 -0.59740 -0.27558
-1.53796 -0.59548 -0.27508
-1.53934 -0.59463 -0.27525
-1.53889 -0.59306 -0.27509
-1.53749 -0.59113 -0.27494
-1.53798 -0.58993 -0.27477
-1.54121 -0.58978 -0.27526
-1.53983 -0.58787 -0.27494
-1.53844 -0.58595 -0.27461
-1.53890 -0.58474 -0.27461
-1.54028 -0.58388 -0.27478
-1.54074 -0.58267 -0.27478
-1.54028 -0.58111 -0.27462
-1.54073 -0.57990 -0.27463
-1.53934 -0.57799 -0.27430
-1.54072 -0.57713 -0.27447
-1.54022 -0.57556 -0.27448
-1.52496 -0.56849 -0.27168
-1.53066 -0.84544 -0.29300
-1.54601 -0.85233 -0.29581
-1.54927 -0.85253 -0.29631
-1.54994 -0.85131 -0.29631
-1.54891 -0.84915 -0.29580
-1.54785 -0.84699 -0.29547
-1.54851 -0.84576 -0.29547
-1.55005 -0.84501 -0.29564
-1.54985 -0.84332 -0.29548
-1.55051 -0.84210 -0.29548
-1.54947 -0.83995 -0.29497
-1.54923 -0.83824 -0.29500
-1.54900 -0.83654 -0.29502
-1.55055 -0.83579 -0.29500
-1.54559 -0.80512 -0.29192
-1.54535 -0.80345 -0.29176
-1.54685 -0.80269 -0.29193
-1.54833 -0.80192 -0.29228
-1.54721 -0.79979 -0.29195
-1.54608 -0.79767 -0.29162
-1.54673 -0.79647 -0.29144
-1.54733 -0.79524 -0.29163
-1.54708 -0.79358 -0.29147
-1.54682 -0.79191 -0.29130
-1.54744 -0.79070 -0.29131
-1.54804 -0.78947 -0.29149
-1.54778 -0.78780 -0.29133
-1.54752 -0.78614 -0.29117
-1.54813 -0.78492 -0.29117
-1.54784 -0.78325 -0.29119
-1.54757 -0.78159 -0.29103
-1.54819 -0.78037 -0.29103
-1.54530 -0.77740 -0.29019
-1.54415 -0.77530 -0.28986
-1.54738 -0.77539 -0.29054
-1.54816 -0.74709 -0.28825
-1.54428 -0.74373 -0.28761
-1.54486 -0.74251 -0.28762
-1.54633 -0.74172 -0.28778
-1.54247 -0.73838 -0.28696
-1.54216 -0.73674 -0.28680
-1.54451 -0.73638 -0.28713
-1.54420 -0.73474 -0.28697
-1.54389 -0.73311 -0.28681
-1.54357 -0.73147 -0.28664
-1.54414 -0.73026 -0.28665
-1.54561 -0.72947 -0.28681
-1.54621 -0.72826 -0.28664
-1.54410 -0.72579 -0.28614
-1.54467 -0.72458 -0.28615
-1.54524 -0.72336 -0.28615
-1.54581 -0.72215 -0.28615
-1.54637 -0.72093 -0.28616
-1.54512 -0.71888 -0.28601
-1.54482 -0.71726 -0.28567
-1.54449 -0.71563 -0.28551
-1.54594 -0.71483 -0.28567
-1.54199 -0.68524 -0.28326
-1.54072 -0.68323 -0.28293
-1.54306 -0.68282 -0.28327
-1.54360 -0.68160 -0.28327
-1.54413 -0.68039 -0.28327
-1.54199 -0.67799 -0.28260
-1.54252 -0.67678 -0.28261
-1.54398 -0.67597 -0.28260
-1.54268 -0.67396 -0.28245
-1.54230 -0.67235 -0.28228
-1.54283 -0.67114 -0.28229
-1.54245 -0.66953 -0.28213
-1.54117 -0.66753 -0.28180
-1.54169 -0.66632 -0.28180
-1.54219 -0.66510 -0.28198
-1.54271 -0.66388 -0.28198
-1.54145 -0.66190 -0.28148
-1.54197 -0.66069 -0.28148
-1.54246 -0.65946 -0.28166
-1.54207 -0.65787 -0.28150
-1.54074 -0.65587 -0.28135
-1.54126 -0.65465 -0.28135
-1.54359 -0.65421 -0.28168
-1.53606 -0.64675 -0.27986
-1.53890 -0.64510 -0.28020
-1.54213 -0.64503 -0.28070
-1.54173 -0.64343 -0.28053
-1.53859 -0.64071 -0.27987
-1.53818 -0.63912 -0.27971
-1.53869 -0.63791 -0.27971
-1.53919 -0.63670 -0.27972
-1.53969 -0.63548 -0.27972
-1.53927 -0.63390 -0.27956
-1.53889 -0.63232 -0.27922
-1.53844 -0.63073 -0.27923
-1.53897 -0.62953 -0.27906
-1.53852 -0.62793 -0.27907
-1.53901 -0.62672 -0.27908
-1.53768 -0.62477 -0.27875
-1.53817 -0.62356 -0.27875
-1.53957 -0.62272 -0.27892
-1.54095 -0.62187 -0.27926
-1.54052 -0.62029 -0.27910
-1.54007 -0.61870 -0.27911
-1.54055 -0.61748 -0.27911
-1.54106 -0.61628 -0.27894
-1.54155 -0.61507 -0.27895
-1.54109 -0.61348 -0.27896
-1.53973 -0.61154 -0.27863
-1.53930 -0.60997 -0.27847
-1.53886 -0.60839 -0.27830
-1.53842 -0.60682 -0.27814
-1.53798 -0.60525 -0.27798
-1.53756 -0.60369 -0.27764
-1.53804 -0.60248 -0.27764
-1.53943 -0.60163 -0.27781
-1.53990 -0.60042 -0.27781
-1.53853 -0.59849 -0.27749
-1.53627 -0.59622 -0.27682
-1.53674 -0.59501 -0.27682
-1.53905 -0.59451 -0.27716
-1.53951 -0.59330 -0.27716
-1.53814 -0.59139 -0.27683
-1.53768 -0.58982 -0.27667
-1.53817 -0.58862 -0.27650
-1.54045 -0.58810 -0.27701
-1.54091 -0.58689 -0.27701
-1.53953 -0.58498 -0.27668
-1.53814 -0.58307 -0.27635
-1.53952 -0.58221 -0.27652
-1.53995 -0.58099 -0.27670
-1.53856 -0.57908 -0.27637
-1.53717 -0.57718 -0.27604
-1.53944 -0.57665 -0.27655
-1.53990 -0.57544 -0.27655
-1.52646 -0.56905 -0.27424
-1.54161 -0.85149 -0.29700
-1.54832 -0.85360 -0.29816
-1.54900 -0.85238 -0.29817
-1.54880 -0.85069 -0.29800
-1.54858 -0.84898 -0.29802
-1.54839 -0.84728 -0.29786
-1.54819 -0.84559 -0.29770
-1.54796 -0.84388 -0.29772
-1.54949 -0.84313 -0.29789
-1.55015 -0.84190 -0.29789
-1.54822 -0.83927 -0.29740
-1.54801 -0.83758 -0.29723
-1.54954 -0.83683 -0.29740
-1.54638 -0.80708 -0.29445
-1.54436 -0.80448 -0.29413
-1.54499 -0.80327 -0.29413
-1.54562 -0.80205 -0.29414
-1.54538 -0.80039 -0.29397
-1.54600 -0.79917 -0.29398
-1.54573 -0.79749 -0.29400
-1.54548 -0.79583 -0.29383
-1.54522 -0.79416 -0.29367
-1.54585 -0.79295 -0.29367
-1.54647 -0.79173 -0.29368
-1.54533 -0.78962 -0.29335
-1.54595 -0.78840 -0.29335
-1.54657 -0.78719 -0.29335
-1.54631 -0.78553 -0.29319
-1.54692 -0.78431 -0.29319
-1.54669 -0.78267 -0.29285
-1.54818 -0.78189 -0.29302
-1.54879 -0.78068 -0.29302
-1.54676 -0.77813 -0.29252
-1.54385 -0.77515 -0.29186
-1.54337 -0.74478 -0.28977
-1.54220 -0.74272 -0.28926
-1.54453 -0.74235 -0.28977
-1.54600 -0.74157 -0.28994
-1.54395 -0.73909 -0.28927
-1.54364 -0.73745 -0.28910
-1.54421 -0.73624 -0.28911
-1.54301 -0.73418 -0.28878
-1.54537 -0.73381 -0.28911
-1.54505 -0.73217 -0.28895
-1.54474 -0.73054 -0.28879
-1.54352 -0.72848 -0.28846
-1.54410 -0.72727 -0.28846
-1.54377 -0.72564 -0.28830
-1.54434 -0.72442 -0.28830
-1.54491 -0.72321 -0.28830
-1.54366 -0.72115 -0.28815
-1.54336 -0.71953 -0.28781
-1.54301 -0.71789 -0.28782
-1.54360 -0.71669 -0.28765
-1.54503 -0.71588 -0.28800
-1.54827 -0.71591 -0.28850
-1.53991 -0.68432 -0.28470
-1.53952 -0.68270 -0.28471
-1.54099 -0.68190 -0.28471
-1.54330 -0.68147 -0.28522
-1.54206 -0.67947 -0.28471
-1.54078 -0.67746 -0.28438
-1.54039 -0.67585 -0.28440
-1.54182 -0.67503 -0.28457
-1.54323 -0.67420 -0.28491
-1.54378 -0.67300 -0.28474
-1.54522 -0.67217 -0.28491
-1.54481 -0.67056 -0.28492
-1.54262 -0.66816 -0.28442
-1.54312 -0.66694 -0.28460
-1.54183 -0.66494 -0.28427
-1.54148 -0.66335 -0.28393
-1.54200 -0.66214 -0.28393
-1.54158 -0.66053 -0.28395
-1.54213 -0.65933 -0.28377
-1.54083 -0.65734 -0.28344
-1.54044 -0.65574 -0.28328
-1.54098 -0.65454 -0.28311
-1.55330 -0.65833 -0.28528
-1.53360 -0.62593 -0.28051
-1.53781 -0.62342 -0.28102
-1.53830 -0.62221 -0.28102
-1.53879 -0.62100 -0.28102
-1.53745 -0.61905 -0.28069
-1.53794 -0.61784 -0.28069
-1.54025 -0.61736 -0.28103
-1.54074 -0.61615 -0.28103
-1.53941 -0.61422 -0.28053
-1.53806 -0.61228 -0.28020
-1.53855 -0.61107 -0.28020
-1.53903 -0.60986 -0.28020
-1.53950 -0.60865 -0.28021
-1.53631 -0.60599 -0.27954
-1.53682 -0.60479 -0.27937
-1.53821 -0.60394 -0.27954
-1.53868 -0.60273 -0.27954
-1.53640 -0.60045 -0.27905
-1.53687 -0.59924 -0.27905
-1.53918 -0.59874 -0.27939
-1.54057 -0.59789 -0.27956
-1.54012 -0.59632 -0.27939
-1.53964 -0.59474 -0.27940
-1.53919 -0.59318 -0.27924
-1.53873 -0.59161 -0.27908
-1.53736 -0.58970 -0.27874
-1.53782 -0.58849 -0.27875
-1.53733 -0.58691 -0.27876
-1.53779 -0.58571 -0.27876
-1.53917 -0.58484 -0.27893
-1.53963 -0.58364 -0.27893
-1.53917 -0.58208 -0.27877
-1.53594 -0.57947 -0.27810
-1.53454 -0.57757 -0.27777
-1.53500 -0.57636 -0.27777
-1.54099 -0.57723 -0.27878
-1.53590 -0.57395 -0.27778
-1.53432 -0.84746 -0.29824
-1.54621 -0.85244 -0.30042
-1.54602 -0.85074 -0.30026
-1.54669 -0.84952 -0.30026
-1.54739 -0.84832 -0.30008
-1.54716 -0.84661 -0.30010
-1.54696 -0.84492 -0.29994
-1.54852 -0.84418 -0.29992
-1.54919 -0.84296 -0.29993
-1.54812 -0.84080 -0.29960
-1.54702 -0.83862 -0.29945
-1.54771 -0.83742 -0.29927
-1.54921 -0.83665 -0.29962
-1.54337 -0.80551 -0.29651
-1.54313 -0.80384 -0.29634
-1.54376 -0.80263 -0.29634
-1.54439 -0.80141 -0.29635
